5998.388184,5845.101562,5736.629883,5888.895996,5904.725098,5682.149902,4950.189941,4904.786133,5127.116699,4904.138672,4285.349609,4211.348145,4344.573730,4823.447266,4436.398438,4591.516602,5146.099121,5264.136230,5122.474121,5161.621094,5052.528809,4967.895020,5201.929688,5215.540527,5183.622070,5157.952637,5108.984375,5122.963379,5048.680176,4891.813965,4785.725586,4809.814453,4855.587891,4906.347168,4950.135254,4788.176758,4669.315430,4622.398438,4624.032715,4580.135742,4482.668945,4333.334473,4271.957031,4157.037598,4060.589600,4018.783447,3925.575195,3860.353760,3769.622803,3634.296875,3585.928223,3440.960205,3334.897217,3050.585938,3185.530762,3398.570068,3511.746338,3752.646729,3912.718994,3765.593018,3645.497070,3658.179199,3661.228271,3592.407959,3458.508789,3290.958496,3198.110107,1860.640991,264.922760,804.058533,1022.733093,354.995422,986.182007,856.683167,20.809772,nan,nan,nan,nan,nan,nan,nan,nan,4.858606,16.651258,202.818069,1929.170898,3052.871338,3358.500732,3006.582520,4535.958008,4751.008301,4707.402832,4692.796387,4721.228027,4755.151855,4629.612793,4268.881836,3727.130615,3434.915527,3754.400635,4171.585449,4550.939941,4791.906738,4795.793457,4933.769043,5057.956055,5135.309570,5179.653809,5157.308594,5053.895996,4896.770020,4358.104492,3927.538574,4278.662598,2818.298340,1751.844482,565.038330,13.036758,nan,nan,nan,nan,nan,nan,nan,nan,nan,nan,nan,nan,nan,nan,nan,nan,nan,nan,nan,nan,nan,nan,nan,nan,nan,nan,nan,nan,nan,nan,nan,nan,nan,nan,nan,nan,nan,nan,nan,nan,nan,nan,nan,nan,283.271515,2010.108521,4684.453613,4791.015137,4224.743164,3811.945801,3277.771484,3668.670166,4224.434570,4498.334961,4515.289551,4513.505371,4523.611328,4557.335449,4553.406250,3924.527100,2292.531250,2397.407959,1722.129883,89.723740,184.092377,230.602280,986.875183,3703.627197,3700.818604,3657.738281,3611.708008,3533.632080,3384.326660,3317.041992,1684.857300,2095.366211,2290.711426,909.154480,121.386246,8.874135,33.735035,66.639687,42.354202,12.741143,17.646866,42.841034,473.248291,2104.365234,1738.407104,1873.434326,1845.163086,1731.648071,913.519287,1388.423950,1929.948486,3699.313232,1410.065063,1281.323486,720.001221,6405.230957,5806.463867,5909.566406,5886.326660,5057.189941,3920.436523,3878.152100,3667.094727,4233.695312,3065.874268,2459.413086,3208.368652,4177.165527,3436.639404,3766.987305,2720.471191,3591.080566,4550.458984,4394.647461,5393.355957,5236.597656,5135.012695,5136.102539,5077.063477,4273.438477,4226.410645,5031.645996,4644.391602,3974.964111,3791.465088,3514.647705,3539.255615,4868.627930,5244.137695,5337.778320,5300.221680,5516.475586,5932.182617
6006.732422,5828.416016,5716.241699,5273.473145,5533.739746,5414.280273,4496.635742,4235.894531,4830.930176,4716.400879,4124.325195,4567.916016,4817.294922,5222.194824,4817.399414,5156.501465,5264.565918,5173.313965,5134.323242,5156.597168,5152.457520,5255.711914,5284.185059,5256.582031,5184.650391,5216.784180,5075.508789,5035.398926,4858.324707,4899.298340,4924.814941,4929.907227,4912.284180,4888.217285,4980.968262,4803.134277,4711.412598,4710.442871,4664.847656,4622.283691,4516.589355,4431.520508,4406.190918,4329.940918,4258.256836,4154.153320,3985.261719,3883.682861,3629.939941,3501.263428,3298.505127,3466.396973,3451.629395,3128.100830,3124.272461,3367.837646,3600.256348,3814.839600,4016.849365,4051.093750,3977.892822,3860.924805,3726.375000,3766.257812,3511.040039,3302.453125,1743.022949,17.897011,606.003662,2142.192627,3151.683105,3058.520508,2931.900879,2638.616211,463.191986,127.718544,11.751143,10.709802,nan,467.590607,552.721069,397.838074,124.616043,48.157570,63.743145,1012.447876,2466.321289,3883.328369,4199.551270,4588.559570,4874.863281,4957.797363,4937.321289,4886.929688,4871.493164,4802.105469,4345.511719,4108.507324,3839.508545,4040.047119,4509.105957,4849.244629,4949.799805,5233.003906,5366.957520,5373.013184,5549.361816,5589.618164,5520.812500,5368.696289,5274.453613,5115.890137,5078.775391,4909.563477,4358.994141,1638.294556,45.910835,13.608274,3.249609,nan,nan,nan,nan,nan,nan,nan,nan,nan,nan,nan,nan,nan,nan,nan,nan,nan,nan,nan,nan,nan,nan,nan,nan,nan,nan,nan,nan,nan,nan,nan,nan,nan,nan,nan,nan,nan,nan,nan,7.861610,635.810486,1135.026978,607.635864,141.029846,nan,509.872681,3499.679932,4258.334473,3709.765869,3883.140625,3653.046143,4241.253906,4443.223145,4434.748535,4386.846680,4379.749512,4379.236816,4431.699707,4426.339844,3221.996582,1648.419189,2003.025757,1015.857178,14.619518,nan,14.082252,2108.101562,3632.817627,3559.449219,3502.059570,3450.627197,3382.848389,3288.366455,3335.334961,1238.841064,2166.969238,2898.997314,1278.814209,101.949547,21.740837,57.115639,65.552551,25.382511,6.890352,3.545939,24.824167,129.896210,1707.608154,3592.947998,3119.193359,1759.874390,1559.619507,1180.023315,304.637970,490.383636,1116.408569,179.277802,366.390564,2233.505127,6420.139160,5611.510742,5810.396973,5906.802246,5846.295410,4505.875977,4596.695801,4804.656250,4603.680664,3549.770020,4965.111816,5459.182617,4413.416016,3951.697266,5004.628906,5033.186523,5746.700684,5739.492188,5668.326660,5688.358887,5620.884766,4953.380371,5535.012207,5089.127441,3473.994141,3320.667969,4673.374023,4673.704590,3827.648682,4521.492676,3510.169434,4440.380371,5062.434082,5428.298340,5489.023926,5413.839844,5554.161621,5814.714844
5615.936035,4860.333008,4944.618164,5326.387207,5357.583008,5069.429688,5274.974609,5303.059570,5224.569336,5101.996094,4807.789062,5178.734863,5311.878418,5259.215332,5183.502441,5221.654785,5411.124512,5140.831543,5214.987305,5230.950195,5353.098145,5337.802246,5361.021484,5381.271484,5351.683105,5244.536621,5040.293457,4941.800781,4918.224609,4963.280273,4975.569336,5000.491699,4858.792969,4850.977539,4945.629883,4902.278809,4832.937988,4828.610352,4719.802734,4634.173828,4549.016113,4430.216309,4286.217285,4253.086914,4175.016602,4121.401367,4107.375977,4095.437988,3911.532227,3794.652100,3711.830566,3644.633057,3469.714111,3175.895752,3008.515625,3224.936523,3358.459229,3546.498047,3964.933838,4173.088379,4095.071777,4002.404053,3771.372803,3933.735840,3509.827881,1689.247437,82.376099,nan,171.373032,1417.379395,2613.754150,3136.332764,3650.661621,3463.129150,3041.631348,1979.518555,411.914581,63.270863,540.753052,1674.489624,2230.127686,2829.238281,1345.019775,1651.665771,1141.420166,1816.206787,2133.675049,4337.763672,4601.932129,4811.618164,4985.711914,5018.971191,4960.173828,4831.913086,4567.578125,4062.173340,3510.451416,3782.674072,4261.681152,4699.502441,4996.167969,5204.892578,5415.635742,5566.728516,5683.498047,5732.753418,5700.909180,5640.688477,5435.561523,5229.286133,5080.441406,5040.020996,4960.015137,4862.375977,4377.671875,1649.365601,8.016981,5.666647,nan,nan,nan,nan,nan,nan,nan,nan,nan,nan,nan,nan,nan,nan,nan,nan,nan,nan,nan,nan,nan,nan,nan,nan,nan,nan,nan,nan,nan,nan,nan,nan,nan,nan,nan,nan,nan,nan,nan,nan,234.748871,647.328125,1438.151855,1883.079346,1822.612061,1814.255005,763.832214,885.763000,1810.830811,3611.996338,3878.575684,4214.862793,4428.188965,4356.117188,4294.255859,4245.847656,4229.649414,4234.630371,4291.156250,4289.834961,2645.726074,1610.674927,1578.858154,91.274323,nan,nan,170.889984,2576.649902,3502.672363,3437.239502,3352.763428,3292.782227,3227.837158,3133.152832,3148.950195,1323.668579,1177.655273,2137.989014,1498.206909,66.543022,12.170311,33.683483,34.910431,11.347146,nan,nan,nan,68.398331,1967.831421,3583.028076,4287.062988,3663.305176,3196.769531,2319.284912,1371.884766,226.291016,452.415405,330.044250,71.978767,4092.551025,5691.433594,5573.640625,5792.493164,5902.292969,5827.799316,4704.934570,4808.345703,4942.611816,4707.017578,3633.304199,4019.673340,5051.673828,6188.518555,6496.851562,5206.252930,5473.281738,5852.013184,5913.805176,5932.254395,5946.332520,5927.391113,5100.148926,5442.897461,5297.447266,4847.142090,4265.751465,4946.491699,3842.139160,3253.174072,4415.850098,4178.479004,4932.397949,5317.559082,5588.257324,5612.273926,5593.993164,5727.769043,5788.312500
5475.650391,4900.880371,5005.565430,5377.966309,5387.426758,5564.035645,5526.535645,5523.524902,5182.170410,4862.473145,4934.419922,5437.162598,5578.003418,5600.034180,5465.783691,5479.341797,5470.378906,5520.473145,5563.718750,5619.605957,5575.427246,5367.008301,5285.944824,5329.240723,5245.122559,5088.096191,5025.877930,4922.228027,4894.016113,4828.589844,4784.472656,4816.560547,4829.412598,4923.134766,5028.553223,4927.292480,4774.939453,4742.557617,4628.924805,4602.848145,4505.073242,4344.389648,4098.244629,4193.764160,4158.966309,4135.150391,4055.665283,4004.159424,3921.874268,3822.406006,3804.824219,3703.605225,3453.138672,3153.902100,3054.644775,3289.369873,3421.373047,3416.954102,3612.209961,3927.314209,4052.748047,4327.354980,3193.645020,1344.369629,223.156342,37.971085,nan,nan,15.277847,408.401611,1544.734375,2855.269043,3576.114258,3967.581299,3971.312988,3832.684082,2980.553955,2684.690674,3268.964111,4166.272461,4871.851074,4233.373535,2408.896729,2442.316650,1879.726929,1691.865723,3032.414062,4818.724121,4990.981934,5186.415527,5105.753418,5012.273926,4825.496582,4558.153809,4090.378662,3533.218750,3402.738525,4152.042480,4647.670410,5012.650391,5309.937012,5554.127441,5638.770508,5887.417969,5844.079102,5823.624023,5690.104492,5480.188477,5196.633789,4915.253906,4646.901855,4590.825684,4633.129395,4528.523926,3982.269287,1249.848999,3.581381,nan,nan,nan,nan,nan,nan,nan,nan,nan,nan,nan,nan,nan,nan,nan,nan,nan,nan,nan,nan,nan,nan,nan,nan,nan,nan,nan,nan,nan,nan,nan,nan,nan,nan,nan,nan,nan,nan,nan,nan,36.785103,56.078968,19.586920,637.873535,1361.967407,1758.363403,2305.439453,2333.994629,2397.317627,2726.892090,3524.822998,3352.871338,3778.087158,4209.084473,4237.829590,4163.430664,4105.359375,4072.849854,4073.583740,4146.646973,4049.127197,2344.907959,1327.802612,471.093292,17.044573,nan,nan,nan,2020.535278,3374.558105,3292.106445,3194.128662,3125.444336,3061.715332,2980.483154,2933.033936,1849.377197,1011.016357,1398.571167,815.872803,52.578838,7.501387,11.134966,2.375434,nan,nan,nan,nan,103.925392,2125.706055,2681.485107,3709.573730,4199.592773,4182.089844,4020.795654,3430.203857,1672.526123,334.700989,473.900269,1309.832764,5609.857422,5161.577148,5591.563477,5834.713379,5872.050293,5728.241211,4521.392090,4976.892578,4955.605957,4845.617676,4687.624023,4085.752930,3340.559082,2956.208252,4559.691895,6608.205566,5181.119141,5909.181152,5890.461426,5988.501465,6031.763184,5982.134277,5305.172363,5490.557617,5611.929688,5070.224609,4946.096680,4289.698242,5023.187500,4851.276855,4692.417969,5183.958984,5441.307129,5459.788574,5642.759766,4962.633301,5234.040527,5736.353516,5308.202148
5478.941406,5214.979492,5220.708984,5480.998535,5254.733398,5438.557617,5218.945312,4960.500000,4767.493652,4654.289062,5305.932129,5538.689941,5525.474609,5636.785156,5626.122559,5633.495117,5593.017578,5548.469727,5600.622559,5750.636719,5601.632812,5349.590820,5425.974609,5371.698242,5302.732422,5284.335938,5211.828613,5003.677734,4834.397949,4771.695801,4823.402344,4876.896973,4896.820312,5015.096680,5056.524414,4940.412109,4827.310059,4690.898926,4538.525879,4473.128906,4435.215332,4316.657227,4142.716309,4113.102539,4085.677490,4015.626953,3898.499512,3880.306396,3653.449463,3476.926758,3822.218994,3752.606934,3403.743408,3081.636719,3253.796631,3487.668457,3497.619141,3455.640869,3617.707764,3834.427246,3540.955322,1203.285522,59.900581,nan,nan,nan,nan,nan,10.558678,81.777023,952.900879,2169.233643,2211.647217,3756.129395,4049.118408,3696.380127,3332.520264,3979.757080,4230.260254,4700.085449,4974.180176,4378.194824,2523.461670,2308.119385,1832.189575,3404.905762,4128.707031,5361.574707,5426.807617,5389.305664,5125.427734,4743.900391,4065.457031,3736.829102,3684.859863,3433.789795,3645.188477,4340.785645,4709.006836,4950.187012,5246.825684,5397.930664,5587.573242,5807.191406,5776.913574,5670.742676,5453.490234,5294.768555,4993.031738,4583.590820,3715.207764,3180.271973,4112.312500,4054.206787,3330.795410,1031.967773,9.820684,nan,nan,nan,nan,nan,nan,nan,nan,nan,nan,nan,nan,nan,nan,nan,nan,nan,nan,nan,nan,nan,nan,nan,nan,nan,nan,nan,nan,nan,nan,nan,nan,nan,nan,nan,nan,nan,nan,nan,44.131737,123.902138,119.051682,nan,nan,nan,389.393463,1211.286621,1258.732056,2097.133789,2555.792725,2643.110596,3144.549072,3841.978271,4113.191406,4117.934570,4019.933105,3951.627930,3898.832764,3940.715576,3962.498047,3741.229004,2508.722168,1514.311157,69.680855,nan,nan,nan,9.001911,1870.367798,3048.208984,3158.522217,3048.709229,2942.797852,2882.944580,2797.749512,2724.626465,2649.117432,785.936829,80.152405,77.079796,29.118847,nan,nan,nan,nan,nan,nan,nan,101.668091,867.923828,1801.923462,3082.723633,4071.669678,4085.506348,3997.720947,3903.619141,905.771484,556.955261,1039.419434,3557.290527,5549.997559,5286.093262,5575.517578,5674.285645,5581.936035,5314.321777,4230.883301,4997.102539,4997.021973,4765.140137,4814.652832,4720.478027,3483.178711,3719.672607,2424.029053,5957.775391,4996.761230,5681.198242,5959.276855,5866.307129,5549.109863,5463.737793,5396.597168,5715.416992,5262.839844,4601.608398,4991.924805,4937.261719,4892.049316,4972.099121,5306.826172,4993.916504,5596.752441,5467.858887,5492.380371,4653.686523,4120.142578,4887.224121,5338.806152
5164.821777,5102.401855,5052.781250,5126.471680,5431.100098,5285.565430,4865.480957,4174.488281,4639.789551,5318.499512,5368.435059,5516.991211,5336.979004,5573.371094,5603.113770,5370.466797,5189.249023,5084.932129,5273.319336,5420.693848,5414.409180,5246.666504,5321.588867,5383.875488,5440.840820,5427.752441,5428.677246,5413.798828,5315.957031,5208.200195,5091.715332,5000.968750,4818.545410,4905.992188,4906.399902,4947.637695,4890.141113,4714.831055,4504.635254,4363.874023,4229.534668,4061.466064,3951.643555,3900.137939,3789.977051,3916.374268,3749.020020,3617.671387,3346.533691,3443.979004,3427.573486,3745.650146,3161.944824,3032.201172,3474.763428,3768.568359,3525.131592,2811.218506,2150.076172,1169.485840,302.431274,40.657902,nan,nan,6.156677,996.675964,1910.620605,989.357544,559.795349,129.627731,358.215851,1184.781738,1741.438843,2245.192871,2749.512451,3915.869385,3228.275635,3864.425049,4056.411133,4471.840332,4658.927734,4331.563477,2568.815430,1585.215088,1713.830566,4784.572754,5342.159180,5334.790039,5486.668945,5474.134277,5206.471680,4638.815430,4217.885254,3942.819092,3368.612305,3586.152344,4179.378906,4554.655273,4874.226562,5117.636719,5216.254883,5174.234863,4994.423828,5301.525879,5269.678223,5201.807617,5148.490234,5002.207520,4733.231445,4305.837891,3223.266602,2223.008789,3449.167236,3658.496582,3312.231201,2069.322998,59.073093,nan,nan,nan,nan,nan,nan,nan,nan,nan,nan,nan,nan,nan,nan,nan,nan,nan,nan,nan,nan,nan,nan,nan,nan,nan,nan,nan,nan,nan,nan,nan,nan,nan,nan,nan,nan,nan,nan,55.951866,86.016060,417.681000,15.151422,nan,nan,nan,nan,nan,nan,1148.922607,2345.785645,3027.169922,3723.085205,3790.538818,3518.875488,4001.172363,3889.201172,3769.527100,3705.265625,3751.819824,3562.754883,3620.001953,2606.347168,678.020447,27.916132,nan,nan,nan,nan,278.810638,1434.676636,2906.723633,2887.672607,2745.169678,2674.123779,2583.207275,2475.032715,2464.310791,1560.287964,9.993865,12.031564,13.192854,nan,nan,nan,nan,nan,nan,32.877068,181.530502,969.762878,942.595581,1923.031006,1955.852051,3999.349121,3964.040771,3528.272949,676.106384,1463.965454,4405.204102,3172.549805,4125.963379,4963.783691,5487.798828,5396.807617,5592.220215,5778.294434,4735.528809,4952.371582,5102.887207,4843.830566,4900.363281,4669.258301,3289.760498,3810.023926,2505.642334,4330.197266,5248.186035,5241.246582,5668.678223,5084.833984,5274.882324,5036.936523,5922.219727,5715.638672,5442.212891,5468.346680,4931.826172,5008.818359,5176.411133,5205.313477,5464.392578,5514.849609,5352.455078,5027.562500,5400.994629,4653.051758,4007.988037,4345.289551,5091.057617
4717.632812,4057.561768,3591.488525,3295.319336,4417.293945,5030.234375,5120.409180,4680.958496,4789.260742,5342.781250,5475.998047,5474.389648,5538.893555,5497.093262,5299.000977,4829.933105,4696.449219,4893.448242,5029.182617,5131.807617,5295.490234,5379.031738,5391.203125,5300.771484,5359.231445,5378.904785,5383.978516,5480.001953,5536.809570,5367.523926,5231.664062,5200.855469,5199.882812,5174.892090,4969.087402,4851.074707,4688.842773,4507.067383,4304.893066,4209.086426,4143.789062,3971.207520,3893.510986,3880.940674,3777.360840,3795.289307,3592.100586,3475.084473,3281.590088,3376.998779,3579.510986,3747.175049,3127.946777,3234.284424,3319.048096,2045.458862,696.914551,nan,nan,nan,23.720751,nan,nan,nan,nan,1032.497925,3974.379883,4163.609375,3699.293213,3049.039795,2251.764160,1744.133301,566.408203,1290.950684,1687.891846,3129.142090,3454.514404,2720.924072,3219.029297,3128.701416,3346.093018,3016.784668,1646.796387,779.458191,3735.800293,5753.124023,5498.223633,5485.483398,5408.585449,4975.902344,4868.606445,4790.562500,4440.499023,4029.820801,3529.184082,3528.145752,4035.597656,4571.393555,4893.478516,5147.401855,5408.337402,5422.963867,5190.812012,5151.829590,5021.889648,4826.062988,4645.883789,4626.069336,4450.380371,3743.507080,3277.396484,3380.334473,3293.184326,3265.530762,3188.680176,2384.015137,255.865875,nan,nan,nan,nan,nan,nan,nan,nan,nan,nan,nan,nan,nan,nan,nan,nan,nan,nan,nan,nan,nan,nan,nan,nan,nan,nan,nan,nan,nan,nan,nan,nan,nan,nan,nan,nan,nan,nan,144.653168,639.617432,81.409874,15.436145,nan,nan,nan,nan,nan,nan,nan,348.364349,1349.119263,1633.163818,3020.689453,3579.074707,3870.727783,3753.828125,3614.933350,3470.540039,3413.453613,3477.251221,3228.939453,1282.470093,90.519409,14.298525,nan,nan,nan,nan,nan,55.010635,990.808228,2473.425781,2508.389160,2370.174805,2265.768066,2216.709473,2268.941650,1700.967041,35.507160,19.295588,17.738194,nan,nan,nan,nan,nan,22.452044,67.477325,86.476334,756.396179,1540.864990,2143.244141,3276.600586,3813.513428,3942.104980,3693.449707,1653.531006,307.571777,3638.202148,4008.389160,4403.242188,5217.749023,5321.629395,5618.364258,5859.329590,5904.555664,5278.178223,4847.363281,4968.959473,4828.061523,4853.797363,4711.027344,3313.727295,3893.674072,2923.206299,3894.886230,6416.700684,4691.225586,3710.511475,4399.269043,5013.281738,5630.324219,5766.670898,5761.072266,5670.888184,5563.971680,5113.672852,5146.611816,5245.993164,4880.189453,4989.337891,5207.085449,4026.090332,3802.528564,3929.450684,4060.598389,4215.749512,4027.783936,4440.358398
3778.479492,4508.415039,4647.364258,4069.191406,3008.429688,3977.714844,3534.737305,3945.069336,4812.857422,5336.249023,5450.505371,5360.386230,5300.249512,5111.388672,4753.243164,4227.523926,4239.182129,3694.617920,5130.811523,5109.312500,5315.334961,5421.203125,5399.921387,5357.066406,5388.585449,5409.446777,5360.820801,5474.779785,5430.044922,5255.179688,5214.790039,5251.427734,5245.043945,5246.232422,5140.501465,5006.898926,4807.963379,4762.395996,4423.676270,4224.827637,4208.468262,4152.408691,4090.775635,3952.755127,3878.474854,3785.352783,3489.207031,3506.853760,3172.376221,3038.454590,3344.232666,3225.122070,3307.436279,2059.526123,678.895081,nan,nan,nan,nan,290.650085,1106.708008,423.630066,45.945393,7.896484,nan,248.655121,3734.910400,4133.289551,2855.546875,3894.807373,3926.095703,4586.089844,4586.281738,3863.229736,2589.673828,1800.877441,426.083496,26.489103,914.788574,3225.843018,4984.372070,3880.165283,3613.673096,5260.284180,5925.143066,5537.011719,5454.857422,5559.777832,5169.426758,4975.090332,5047.427246,4820.724609,4509.165527,4130.257812,3466.226318,3219.551514,3893.827148,4313.197754,4749.174316,5127.541016,5399.695312,5585.809570,5462.528320,5277.781250,5084.462891,4959.055664,4808.960938,4676.836426,4568.043945,4241.042480,4015.459229,3835.404297,3425.718750,3295.708496,2980.459717,2017.319702,76.131187,nan,nan,nan,nan,nan,nan,nan,nan,nan,nan,nan,nan,nan,nan,nan,nan,nan,nan,nan,nan,nan,nan,nan,nan,nan,nan,nan,nan,nan,nan,nan,nan,nan,nan,nan,nan,nan,262.029480,634.984436,448.015778,14.981677,nan,nan,nan,nan,nan,nan,nan,nan,nan,nan,55.512749,1903.188477,3450.112305,3578.735840,3578.504150,3437.874512,3189.451904,3174.192139,3239.695801,1701.883667,97.769821,35.872486,nan,nan,nan,nan,nan,nan,nan,22.420322,577.197571,1793.739990,2064.000977,1817.708130,1806.631470,1797.004028,388.899963,6.667508,nan,nan,nan,nan,nan,nan,nan,28.446133,60.928204,20.307934,60.613667,325.504669,841.626465,2155.484131,2943.841797,3577.990234,3754.387939,2981.430420,1138.047241,4096.203125,5475.141113,5303.010254,5167.922852,5533.877441,5749.331543,5990.907715,5987.795410,5834.594727,4910.885254,4823.720215,4858.915527,4821.945801,4587.859863,3199.658447,3919.937500,3064.433350,4061.209229,5215.733887,5221.230957,5016.626953,5245.434082,5434.759766,5564.592285,5582.483887,5247.083984,5401.128906,4859.942871,4678.322754,5228.760742,4376.560547,4557.183594,4808.499023,5281.483887,3591.427979,3558.070312,3809.670898,3749.697754,3732.780762,4323.905762,4618.712891
4546.696777,5029.299805,5163.337891,5385.583008,4972.965820,3981.242676,3705.266602,4265.146973,4705.591309,4847.311035,4969.847168,4943.893555,4821.718262,4673.361328,4547.951660,3922.829346,2407.761475,2916.758789,5235.569824,5091.196777,5263.326660,5383.996094,5393.316895,5383.608887,5383.044922,5569.666016,5494.609375,5458.815918,5267.671875,5183.468262,5215.215820,5226.487305,5241.715820,5102.659180,4944.428223,4754.739258,4761.060059,4632.217773,4535.368652,4391.795410,4271.049316,4184.080566,4032.268799,3992.299072,3871.671631,3758.648682,3706.566162,3596.939209,3308.013672,3140.947754,2929.281738,3169.271484,2397.133057,175.606705,nan,nan,nan,nan,10.486688,1062.029175,2675.961914,1804.272095,555.187622,11.967232,nan,160.036301,1716.190430,4497.222656,4289.410156,3849.601318,3104.716064,2293.590576,663.168396,3416.492188,1743.984985,2011.713257,2688.551514,2182.873047,2857.998047,5073.657715,6024.229004,6234.912598,5793.297363,5581.609863,5465.204102,5297.931152,5086.228027,5195.634766,5201.831543,5117.368652,5095.514648,4854.724121,4541.734863,4173.625977,3794.919678,3211.413086,3781.224365,4372.269043,4799.909180,5114.663086,5442.800781,5560.670410,5546.911133,5295.769531,4971.109375,4710.790527,4521.353516,4822.190430,4967.279785,4791.564453,4609.864746,4413.589355,4055.529297,3760.151367,2931.409668,692.260925,7.123896,nan,nan,nan,nan,nan,nan,nan,nan,nan,nan,nan,nan,nan,nan,nan,nan,nan,nan,nan,nan,nan,nan,nan,nan,nan,nan,nan,nan,nan,nan,nan,nan,nan,nan,nan,nan,nan,445.632324,960.495667,95.586998,nan,nan,nan,nan,nan,nan,nan,nan,nan,nan,nan,nan,257.675323,2662.638672,3369.783691,3463.861328,3310.907959,3001.684082,2677.434814,2826.406738,437.259705,47.213974,20.097029,nan,nan,nan,nan,nan,nan,nan,nan,nan,130.188919,459.653015,620.538818,407.825439,167.012543,12.371216,nan,nan,nan,nan,nan,nan,nan,nan,17.435066,33.186115,31.816307,20.846891,67.056625,106.624512,306.091125,745.518738,1486.962524,2801.918457,3116.784424,2220.004639,4707.475098,5626.754395,5597.799316,5450.425293,5450.491699,5781.600098,5924.778320,5975.611816,5878.940918,5049.617676,4536.364258,4716.513672,4717.659668,4461.082520,3157.223389,3460.742676,2586.786133,4589.651855,4126.934570,4049.379883,5081.656250,5765.763184,5640.360840,5283.649414,4029.035645,5166.635742,5324.783691,4441.334473,4566.987793,4670.409180,5342.503906,5328.392578,5383.611816,5498.082520,5493.253906,4717.517578,3665.579834,3697.514160,3134.074951,4042.584961,3809.580078
5004.832520,5469.447266,5531.999023,5419.545410,5303.353027,5040.917480,4871.668457,4590.160156,4278.149414,4438.669922,4649.797852,4663.388184,4519.128906,4176.300293,3017.054443,3018.414307,3884.925049,4950.813477,4847.292480,5189.227539,5437.652832,5437.442871,5309.855957,5406.048828,5491.691895,5453.636230,5468.118652,5378.843750,5188.611816,5157.488281,5091.736816,5178.202637,5081.566895,4932.751953,4717.388672,4746.074219,4667.269043,4450.908203,4309.441406,4170.097656,4190.312500,4080.174072,3984.584961,4002.145020,3941.763428,3854.949219,3730.228271,3622.540771,3320.501465,3166.694580,2940.102539,2849.224854,706.403442,29.247408,nan,nan,nan,nan,161.956024,2062.388184,3283.961914,3275.471924,1096.487061,47.776230,33.175098,29.015831,626.553406,2183.564941,2211.310547,1294.824707,2185.017822,589.745422,178.088562,1171.468140,2071.251221,1891.118896,2280.488037,3598.884766,5316.287598,5392.998535,5492.260254,5613.828613,5633.160645,5679.161621,5740.021973,5698.408203,5482.460938,5358.016113,5448.410156,5415.042480,5249.420898,4873.258789,4681.758301,4292.053223,3779.260254,3229.332031,3545.876221,4253.840820,4775.106934,5116.835449,5381.904785,5562.606934,5488.362793,5307.598145,5068.158691,4840.061035,4965.367676,5266.053223,5337.176270,5182.563477,5029.855957,4798.051270,4472.186523,4106.787109,3260.360596,912.320190,23.945206,nan,nan,nan,nan,nan,nan,nan,nan,nan,nan,nan,nan,nan,nan,nan,nan,nan,nan,nan,nan,nan,nan,nan,nan,nan,nan,nan,nan,nan,nan,nan,nan,nan,nan,nan,nan,23.873804,652.564331,709.065613,1.000000,nan,nan,nan,nan,nan,nan,nan,nan,nan,nan,nan,nan,15.127754,1315.270264,2924.555908,2913.924072,2870.471191,2735.991699,1952.694946,483.460449,35.245880,nan,8.547055,nan,nan,nan,nan,nan,nan,nan,nan,nan,5.943498,7.960734,33.248375,9.960063,11.830700,nan,nan,nan,nan,nan,nan,nan,nan,nan,nan,10.400051,12.415904,7.231488,22.661232,29.972393,61.066505,124.022919,375.398071,1756.433594,1561.699219,2715.540527,4898.901367,5431.824707,5496.950684,5380.201660,4927.312500,5701.776855,5813.727539,5626.416992,5488.231934,5170.721680,4290.863770,4709.246094,4525.014648,3748.610107,3229.859375,3020.740479,5041.801758,5918.583008,5329.764648,5574.399414,5651.578125,5496.559082,5448.944824,5226.549316,4943.804688,5000.492676,4400.528320,4645.381836,4558.179688,5118.204102,5600.951172,5632.848145,5622.995117,5497.854004,5604.841309,5374.771973,4363.506348,3005.156738,3604.242188,3398.911133,4233.675293
5592.776855,5621.375488,5385.261719,5166.779297,5008.657227,4735.554199,4720.715332,4683.564453,4827.601074,4062.632324,3621.935547,3509.542725,3297.319580,4130.438965,4631.537109,4590.406250,4344.534180,4273.284180,4652.663086,5268.803711,5476.945801,5408.298828,5373.579102,5460.418457,5494.874023,5440.020508,5373.217285,5194.193848,5106.488770,5041.201660,4993.528320,4892.607910,4931.891113,4825.097168,4720.378906,4723.601074,4503.089844,4159.487305,4248.141113,4162.553711,4186.625977,4095.139404,4111.785645,4063.140625,3939.806152,3917.490723,3811.576904,3539.704346,2354.666504,1389.500732,2272.501221,1556.232178,200.095840,nan,nan,nan,nan,nan,322.483917,2225.616699,3515.919678,3749.857910,3677.560303,2472.015625,476.511993,105.780891,1187.591309,2322.799561,1897.969360,1264.568481,812.068298,314.471375,61.049316,244.810623,1330.220459,3408.849121,5020.231934,5377.008789,5456.072754,5489.462402,5760.719238,5827.495117,5851.459473,5873.772949,5883.743164,5902.024414,5812.345703,5846.910645,5710.026855,5468.424805,5307.925293,5057.558105,4825.117676,4373.536133,3987.495117,3497.265869,3685.540039,4334.431641,4763.142090,5115.742676,5355.086426,5631.610840,5575.165527,5584.419434,5642.722168,5576.335938,5578.459961,5629.927246,5518.419922,5345.468750,5165.692383,4909.978027,4527.782227,4039.084717,3314.229736,1563.229248,34.818737,nan,nan,nan,nan,nan,nan,nan,nan,nan,nan,nan,nan,nan,nan,nan,nan,nan,nan,nan,nan,nan,nan,nan,nan,nan,nan,nan,nan,nan,nan,nan,nan,nan,nan,nan,nan,389.873047,962.804993,310.702179,nan,nan,nan,nan,nan,nan,nan,nan,nan,nan,nan,nan,9.793275,511.984558,2743.414551,3313.642334,3085.258057,2393.792969,1926.109253,525.540588,29.066305,20.309752,nan,nan,nan,nan,nan,nan,nan,nan,nan,nan,nan,nan,1.000000,nan,9.069678,9.298702,nan,nan,nan,nan,nan,nan,nan,nan,nan,nan,nan,nan,nan,nan,2.931557,12.070452,27.286289,29.921082,48.062458,104.697754,2491.900879,4730.067383,4993.191895,5404.508789,5825.620605,5234.140625,4955.166992,5285.394531,4821.986816,4133.894531,4994.141113,4631.581055,4785.436523,4317.247559,2539.114990,3252.566650,5214.223145,6285.468262,5932.740723,5410.436035,5677.435547,5412.471680,4681.217773,4873.350586,5086.841797,5033.934570,5030.856934,5090.943359,5167.508789,4719.404785,5634.055664,5817.542480,5902.041992,5820.608887,5826.760254,5829.645508,5704.776855,5515.416504,4954.224609,5231.230469,5546.382812,5556.062500
5579.328125,5351.251953,5257.944824,5042.857910,4613.782715,4207.534668,4234.331543,4076.442871,2398.575684,3180.422363,4463.147461,4855.613281,4777.028320,4726.949707,4757.132812,4630.688477,4509.458984,4609.275879,4993.990723,5315.223633,5396.210938,5365.187500,5370.872559,5276.780273,5169.675781,5066.990234,4901.040039,4788.712891,4850.643066,4830.253906,4742.590820,4744.118652,4729.200684,4722.539062,4642.438477,4632.622559,4447.153320,4419.086426,4369.909668,4276.494629,4243.821777,4181.851074,4080.305420,4022.455566,3827.760986,3656.337158,3708.996582,2627.304199,219.456024,735.666931,1422.340698,101.637421,nan,nan,nan,nan,nan,nan,52.096611,1415.348633,3515.195557,3707.829834,3652.241211,3631.328369,3390.522949,1958.999390,2776.260986,3273.521240,792.074036,241.594543,348.715118,441.938049,514.714661,675.163940,3595.924561,5031.079590,5465.629395,5526.641113,5573.760254,5628.901855,5578.421387,5644.396973,5731.749512,5853.131836,5895.814941,5859.046875,5882.545410,5957.938477,5862.984863,5623.390625,5486.036133,5166.744141,4855.767578,4421.751465,3678.675293,3278.091309,3690.577881,4115.266113,4512.682129,4797.893066,5053.331543,5394.337402,5600.202637,5755.329102,5829.358887,5819.319336,5657.245605,5611.965820,5515.867676,5358.873535,5219.373535,4971.189453,4615.118164,4011.594727,3109.680420,2472.184326,392.342133,38.721313,nan,nan,nan,nan,nan,nan,nan,nan,nan,nan,nan,nan,nan,nan,nan,nan,nan,nan,nan,nan,nan,nan,nan,nan,nan,nan,nan,nan,nan,nan,nan,nan,nan,nan,317.525360,800.722534,518.171326,57.931046,nan,nan,nan,nan,nan,nan,nan,12.318128,9.017389,16.713739,17.101774,11.575994,492.380402,1600.007080,1832.684937,1669.934692,1732.360352,1678.186768,1218.590576,45.744419,nan,nan,nan,nan,nan,nan,nan,nan,nan,nan,nan,nan,nan,nan,nan,nan,nan,nan,nan,nan,nan,nan,nan,nan,nan,nan,nan,nan,nan,nan,nan,nan,nan,nan,nan,14.535557,37.682419,54.953323,586.690735,1314.059448,1292.070435,1243.038696,4609.082031,5454.683105,4240.953613,3042.553711,4262.952148,4637.888672,4766.623535,5092.099609,4882.769043,3817.589111,2073.072266,3639.113037,5077.570801,5497.644531,5642.850586,5270.463867,5182.437500,5435.546387,5096.785156,5201.003906,5602.892090,5700.423828,5764.945312,5390.735352,5275.477539,5209.440430,5651.561523,5957.749023,5992.773438,5851.133789,5944.000488,5884.583496,5842.406250,5810.499023,5662.334961,5819.543457,5756.078613,5678.381836
5413.085938,5127.710938,5039.709961,4712.032227,3423.573486,3790.911377,3235.491943,3719.670166,3430.860107,4525.276855,4670.109375,4860.909668,4923.573730,4819.154297,4655.078613,4832.794922,5067.430664,5190.550781,5335.658203,5402.148926,5472.848145,5391.333984,5307.538086,5200.956055,5119.449707,4949.192871,4780.093750,4723.944824,4761.143066,4764.990723,4758.153320,4677.156738,4611.577637,4589.960449,4695.948242,4691.088867,4505.293457,4460.186523,4488.876953,4347.004395,4192.043945,3982.018799,4061.515869,3991.456299,3894.086426,3792.152100,3240.188965,540.941284,158.654861,1241.484253,115.118729,nan,nan,nan,nan,nan,nan,nan,10.750787,513.779236,2375.775391,2671.108643,2534.051514,3045.421143,3090.366211,3046.858398,3191.486328,2320.361572,94.714264,21.035627,3.102525,401.118225,655.770874,3415.844238,4644.083984,4964.468262,5323.072266,5500.052246,5499.777832,5438.517578,5274.939453,5366.899414,5495.039062,5861.541504,5954.492188,5970.102051,5997.620117,5925.949219,5838.034668,5567.530273,5339.331543,5176.431152,4840.412598,4489.260254,4036.903564,3454.712891,3375.643066,3812.978271,4142.333008,4611.232910,4875.627930,5078.433594,5284.386230,5555.491211,5650.293945,5739.444336,5522.914551,5364.581055,5216.685059,5066.670410,5165.804199,5010.627441,4737.596680,4192.732910,3435.885010,3458.431396,2406.071533,507.604828,39.634720,nan,nan,nan,nan,nan,nan,nan,nan,nan,nan,nan,nan,nan,nan,nan,nan,nan,nan,nan,nan,nan,nan,nan,nan,nan,nan,nan,nan,nan,nan,nan,nan,nan,589.407532,858.377930,89.834442,nan,nan,nan,nan,nan,nan,nan,nan,6.801432,18.409977,53.403770,58.653175,49.788483,137.960678,121.285500,13.647344,nan,nan,nan,7.558447,7.005622,nan,nan,nan,nan,nan,nan,nan,nan,nan,nan,nan,nan,nan,nan,nan,nan,nan,nan,nan,nan,nan,nan,nan,nan,nan,nan,nan,nan,nan,nan,nan,nan,nan,nan,nan,nan,12.355656,41.779797,100.444458,336.490753,883.892517,1396.145630,1080.990967,3741.644287,4923.246582,3455.843506,3928.208252,4498.554688,3868.360107,5154.057129,4891.970215,3589.684814,2656.685303,2797.903076,3280.485107,4472.036133,4935.981934,5239.159180,5826.813965,5777.385254,5639.361328,5768.380859,5932.561035,6010.683105,5930.792480,5896.749023,5902.766113,5701.473145,5720.799805,5891.666016,5910.100586,5884.587402,5878.879883,5965.223145,5995.113770,5885.642578,5874.115234,5758.787109,5613.384766,5565.940918
5232.517090,4519.621094,4053.312012,4624.931641,5192.642578,5008.791016,4581.178711,4517.716797,4376.306641,4554.342773,4861.322266,5152.888184,4986.299805,4461.052246,4969.493164,5374.233398,5526.222656,5582.326172,5571.172363,5477.377441,5444.879395,5407.361816,5299.998535,5128.229004,4987.499512,4826.875488,4867.551270,4816.468262,4810.363770,4769.191406,4715.493652,4574.023438,4424.022949,4421.499023,4441.577637,4504.924805,4479.529297,4532.469238,4377.548340,4304.029297,4191.065430,4107.742676,4016.773926,3902.477295,3829.695312,3517.359131,1041.979126,81.997871,1047.325684,545.944397,nan,nan,nan,nan,nan,nan,nan,nan,10.227785,240.084015,839.864075,732.875488,988.909302,1243.312744,1830.830688,2621.163330,2915.879883,1067.022949,52.870602,9.969422,7.585325,408.964386,695.127930,3000.339600,4748.043457,4598.456055,5035.135254,5422.359863,5413.753906,5254.812988,5117.768066,5235.464355,5376.806152,5691.344727,5927.960938,6003.293945,6025.064941,5999.580078,5812.933594,5558.982910,5499.542969,5199.271973,4887.087891,4608.910645,4238.211426,3773.002930,2985.656738,3614.703857,3932.727051,4303.000977,4708.814453,4909.147949,4953.715332,5100.749023,5231.032227,5198.878906,5197.494629,5166.073242,5143.701172,5198.127441,5191.250488,4998.948242,4818.139648,4519.712891,4019.734863,3271.280029,2943.145752,2093.261963,431.923737,24.881113,nan,nan,nan,nan,nan,nan,nan,nan,nan,nan,nan,nan,nan,nan,nan,nan,nan,nan,nan,nan,nan,nan,nan,nan,nan,nan,nan,nan,nan,nan,nan,39.760948,709.436035,379.437683,nan,nan,nan,nan,nan,nan,nan,nan,6.350686,36.236637,50.431023,59.251217,nan,10.486871,27.370245,nan,nan,nan,nan,nan,nan,nan,nan,nan,nan,nan,nan,nan,nan,nan,nan,nan,nan,nan,nan,nan,nan,nan,nan,nan,nan,nan,nan,nan,nan,nan,nan,nan,nan,nan,nan,nan,nan,nan,nan,nan,nan,nan,nan,15.854204,55.067585,101.157280,106.099648,533.063538,1092.655396,911.019836,3580.163818,4734.406738,4517.760254,4386.462402,4620.456543,4683.869629,4415.177246,3307.718018,3193.251465,3815.760498,5841.301270,4962.677734,5648.672852,5625.262207,5974.543457,5713.305176,5656.348145,5662.931152,5978.825195,6052.905273,5918.686523,5920.041504,5939.466797,5819.676270,5781.415527,5744.055176,5737.683594,5788.608887,5760.193359,5983.334473,6063.304688,6019.730469,5794.987793,5496.176758,5334.741211,5353.159668
4372.641113,4237.774902,4676.614258,5187.968262,4998.233887,5037.272461,4855.097168,4941.798340,5040.483398,5161.621094,5288.998535,5354.008301,5245.669922,5407.894531,5625.343750,5716.549805,5760.928223,5784.546387,5723.145996,5539.508301,5438.270508,5404.566406,5247.904785,4959.172852,4859.554199,4872.218262,4932.586426,4909.125977,4815.229492,4730.145020,4563.917969,4354.150391,4377.479492,4305.513184,4436.144043,4615.149414,4576.847656,4430.646973,4390.618164,4322.732910,4299.645508,4183.740234,3937.415283,3495.232910,3513.333496,2018.952515,86.819611,385.081451,136.520737,nan,nan,nan,nan,nan,nan,nan,nan,nan,nan,11.353367,24.805143,29.912668,30.816236,36.283459,394.707947,1352.618896,553.159546,96.030693,21.214506,3.735060,18.478973,669.383301,954.604980,3256.459961,4880.920410,4579.864746,4828.950195,5393.434570,5395.207031,5206.444824,5178.968262,5111.363770,5093.191895,5276.485352,5566.852051,5688.924805,5794.949219,5733.667480,5597.281738,5478.091309,5460.898926,5262.780273,4972.603027,4661.909668,4229.318359,3801.149170,3198.060547,3010.403320,3531.991455,3788.340820,4176.196289,4516.020508,4719.101074,4739.314453,4834.187988,4760.144043,4714.976074,4641.512207,5069.535645,5232.895020,5279.508789,5071.899902,4876.280762,4655.767578,4328.448730,3035.769043,3080.794678,2932.143799,1090.226440,521.637512,168.381302,nan,nan,nan,nan,nan,nan,nan,nan,nan,nan,nan,nan,nan,nan,nan,nan,nan,nan,nan,nan,nan,nan,nan,nan,nan,nan,nan,nan,nan,nan,42.254715,660.133240,nan,nan,nan,nan,nan,nan,nan,nan,2.796446,17.667809,43.690304,24.665068,nan,nan,nan,nan,nan,nan,nan,nan,nan,nan,nan,nan,nan,nan,nan,nan,nan,nan,nan,nan,nan,nan,nan,nan,nan,nan,nan,nan,nan,nan,nan,nan,nan,nan,nan,nan,nan,nan,nan,nan,nan,nan,nan,nan,nan,nan,nan,nan,nan,19.554176,67.131111,87.192467,108.657127,643.427856,887.542175,1263.356567,4062.751221,3942.330322,3940.166260,4754.650391,4454.891113,3514.487305,2811.555908,3460.081299,5961.296875,6010.005859,5808.551270,6010.797363,6055.991211,6050.423340,5886.460449,5854.336914,5692.864746,5974.862793,6018.937500,5899.641113,5882.330078,5788.298340,5892.419922,5972.174316,5832.026855,5723.996094,5753.054199,5676.979980,5749.296875,5737.641113,5578.834473,5350.498047,5109.406250,5131.925781,5263.485840
5248.223145,5309.037109,5296.311523,5170.263184,5068.965820,5257.466797,5412.961426,5497.583008,5524.671875,5571.485352,5556.595215,5489.780273,5562.644531,5634.590332,5775.691406,5837.681152,5850.905273,5787.906250,5586.907715,5432.183105,5415.593750,5413.761719,5196.930664,5189.203613,5131.134766,5047.335938,4984.467773,4863.090332,4704.957520,4518.025391,4468.356445,4520.819824,4590.070312,4603.741699,4586.136230,4620.497559,4484.732422,4338.459473,4275.877930,4255.252930,4102.628906,4019.565918,3773.494873,3338.655762,2375.353516,811.030701,120.706070,142.074249,28.691236,nan,nan,nan,nan,nan,nan,nan,nan,nan,nan,nan,3.052259,6.901718,3.106186,7.017147,5.728059,32.487503,74.606506,10.952069,8.001060,3.845899,31.067343,692.504395,847.949829,2750.498047,4267.105469,4433.363770,5270.714355,5422.236816,5342.410156,5191.758301,5084.078125,4872.798340,4815.743164,4940.211426,5197.353516,5528.456055,5542.534668,5541.953125,5534.163086,5475.787109,5454.107422,5296.032227,5081.852539,4786.353027,4343.675293,3987.573486,3598.489990,3053.621582,3015.400879,3470.783447,3601.092773,3881.510742,4246.581543,4570.306641,4624.971680,4615.285645,4515.741211,3308.359131,4694.095215,5221.390625,5387.437500,5244.699219,4980.940430,4818.988281,4653.983887,4373.403320,3687.235840,3319.099121,2343.194092,2012.963867,1235.087036,48.926598,nan,nan,nan,nan,nan,nan,nan,nan,nan,nan,nan,nan,nan,nan,nan,nan,nan,nan,18.866520,141.476578,19.083258,nan,nan,nan,nan,nan,19.759497,nan,6.689594,22.377190,nan,nan,nan,nan,nan,nan,nan,nan,nan,nan,6.439871,13.961101,nan,nan,nan,nan,nan,nan,nan,nan,nan,nan,nan,nan,nan,nan,nan,nan,nan,nan,nan,nan,nan,nan,nan,nan,nan,nan,nan,nan,nan,nan,nan,nan,nan,nan,nan,nan,nan,nan,nan,nan,nan,nan,nan,nan,nan,nan,nan,nan,nan,10.770994,8.839200,41.102524,60.124340,78.257950,173.018219,754.310486,460.916779,2222.245605,3985.629883,4510.858887,4389.777344,4262.551758,3028.844482,2041.933105,3730.871338,6968.761719,5762.090820,5993.948242,6192.693359,6181.573730,6071.944336,5987.979004,5904.855957,5764.470215,5695.136230,5379.985352,5519.835449,5554.070801,5860.013184,5972.140625,5917.535156,5930.558105,5995.202148,5872.650391,5702.486328,5388.164062,5333.035156,4800.594238,5210.467285,5224.346680,5174.891602,4889.937500
4975.023926,5219.557129,5290.976562,5246.167480,5213.674316,5592.969727,5706.220703,5779.134766,5775.696777,5770.069336,5605.744629,5368.724121,4875.892578,5467.276855,5540.142090,5801.649414,5841.284668,5714.370117,5478.597656,5366.078125,5302.961914,5374.993652,5510.169434,5504.031250,5587.527344,5478.522949,5212.603027,5035.952148,4841.763184,4722.221680,4621.164551,4665.763672,4689.381348,4680.250000,4599.717285,4534.128906,4364.498047,4133.312988,4192.179199,4194.641602,4133.629883,3981.073486,3617.459229,1821.286011,1371.507690,134.666779,26.059160,23.593225,nan,nan,nan,nan,nan,nan,nan,nan,nan,nan,nan,nan,nan,nan,nan,nan,nan,nan,nan,nan,nan,nan,14.194476,269.131073,674.140564,2281.918945,3459.220459,5004.973633,5380.083008,5419.411133,5372.137695,5189.206055,4968.011230,4334.688477,4443.601074,4709.329102,4847.293945,5208.516113,5361.613770,5537.429688,5558.898926,5573.225098,5527.926270,5428.225586,5156.377930,4971.835938,4736.279785,4216.440430,3850.557373,3528.963867,2958.333740,2878.513916,3306.177246,3466.969971,3685.921875,4009.194092,4205.925781,4205.999512,4158.521973,3003.183350,3766.002686,5241.918457,5421.938965,5339.592285,5061.815430,4757.150391,4547.654785,4461.838867,4345.228027,4185.837891,3259.676758,3019.697754,1485.746948,45.074989,nan,nan,nan,nan,nan,nan,nan,nan,nan,nan,nan,nan,nan,nan,nan,nan,5.989820,261.719482,860.806763,887.926758,55.011623,nan,59.544411,339.409241,1639.816528,2304.785889,1665.485229,484.303375,267.491180,413.477234,432.610291,nan,nan,nan,nan,nan,nan,nan,nan,nan,nan,nan,nan,nan,nan,nan,nan,nan,nan,nan,nan,nan,nan,nan,nan,nan,nan,nan,nan,nan,nan,nan,nan,nan,nan,nan,nan,nan,nan,nan,nan,nan,nan,nan,nan,nan,nan,nan,nan,nan,nan,nan,nan,nan,nan,nan,nan,nan,nan,nan,2.503619,7.780098,7.658933,34.324650,48.058052,71.259880,121.744881,469.920776,252.047958,496.504395,2825.768066,4272.480469,4221.490723,4176.734863,2913.993896,1516.015625,4300.583008,6950.094727,5779.534180,5981.521484,6061.855469,5647.029297,5777.513184,5682.691895,5822.115723,5512.700195,4845.917969,4123.723633,3661.360840,4425.933105,5655.910645,5918.886230,6005.411133,6057.906738,6088.901855,5951.674805,5682.062500,5605.564941,5011.212891,4928.308105,5199.137207,5210.695312,5233.072266,5193.534180
5070.563965,5270.958008,4765.188477,4741.303711,5583.749023,5713.804688,5808.468750,5886.353027,5775.821777,5725.184570,5475.068359,5317.644531,5543.149902,5837.661133,5801.689941,5888.371094,5864.718262,5719.122559,5529.579102,5502.116699,5473.639648,5532.903809,5634.153320,5594.581543,5520.880371,5463.595703,5301.966309,5153.154785,5059.494141,5041.965332,4906.298828,4869.144043,4752.447754,4678.875488,4628.857422,4514.523438,4529.448242,4332.176758,4441.696777,4411.402344,4206.594238,3803.137939,1778.604248,899.977844,596.735718,nan,nan,nan,nan,nan,nan,nan,nan,nan,nan,nan,nan,nan,nan,nan,nan,nan,nan,nan,nan,nan,nan,nan,nan,nan,5.095915,16.903715,135.284851,893.480225,3681.214111,4787.091797,5247.340820,5400.800293,5371.667969,5182.120605,5018.653320,4563.417480,4373.545410,4591.264160,4560.647461,4901.887207,4916.127441,5242.186035,5510.615234,5473.744629,5447.381836,5275.193848,5156.135742,5081.185059,4887.230957,4458.011230,3933.540771,3777.655273,3528.492920,2735.064697,2772.476074,3107.915771,3378.552490,3463.569092,3539.776367,3544.775635,3137.833496,3080.785400,3880.825195,4804.029785,5242.848145,5383.398926,5267.678711,4915.889648,4028.292480,3420.856201,3286.849854,4166.077148,4221.493652,3951.526367,3917.786621,882.405212,54.776264,nan,nan,nan,nan,nan,nan,nan,nan,nan,nan,nan,nan,6.640182,55.158051,216.137939,481.064728,1284.633789,2076.990723,2185.776611,1854.384399,1809.033569,1289.483521,2140.785889,2611.116211,2917.958008,2889.300537,2377.282471,1842.614868,1540.680786,1368.433838,221.812576,nan,nan,nan,nan,nan,nan,nan,nan,nan,nan,nan,nan,nan,nan,nan,nan,nan,nan,nan,nan,nan,nan,nan,nan,nan,nan,nan,nan,nan,nan,nan,nan,nan,nan,nan,nan,nan,nan,nan,nan,nan,nan,nan,nan,nan,nan,nan,nan,nan,nan,nan,nan,nan,nan,nan,nan,nan,nan,nan,2.692266,12.001974,39.294518,63.910816,93.841049,120.695015,143.649857,35.095997,67.127129,405.475464,1301.499146,2796.706543,3515.209229,2773.635010,963.519165,4549.975098,6468.272461,5570.728027,5754.223145,5902.481934,5799.221680,5996.943848,5903.940430,5807.858887,5546.319336,5213.982422,4728.213867,3173.330811,3916.056152,5272.884766,6014.584961,6201.500977,6172.517578,6059.546387,5888.667480,5708.619141,5419.790039,4256.807617,5061.892578,4306.590820,4283.175781,4281.775879,4185.401855
3981.730225,3686.957520,3397.540283,5460.162598,5749.554199,5877.878906,5921.225098,5944.033691,5843.216309,5513.769043,5715.112305,5729.513184,5792.139648,5873.771973,5915.546387,5896.293945,5807.603516,5712.673828,5673.203613,5652.348145,5610.942383,5637.578613,5504.990234,5436.549805,5395.485840,5330.888672,5343.013184,5306.664062,5225.388184,5100.694336,4982.738770,4997.002441,5201.773926,5135.459473,5125.240234,4907.194824,4808.455078,4735.298828,4659.345215,4402.142578,4176.112305,2642.114014,476.971283,435.204498,nan,nan,nan,nan,nan,nan,nan,nan,nan,nan,nan,nan,nan,nan,nan,nan,nan,nan,nan,nan,nan,nan,nan,nan,nan,nan,nan,nan,12.381874,61.375828,2208.460205,3954.094238,4578.841797,4962.386230,5281.678711,5264.486816,5191.966797,5017.174316,4958.384766,4805.118652,4633.523438,4785.779785,4915.986816,5030.778809,5508.997559,5516.314453,5369.534180,5027.411621,4392.414062,4579.682617,4750.486816,4469.415039,4317.075195,4116.749512,3805.984863,3523.690186,3047.626953,2446.802002,2660.363037,2957.312988,3190.727295,3111.001465,2796.481934,3249.112305,3773.931641,4693.850098,5070.429199,5125.033203,5206.679199,5172.569824,4884.496094,4067.618652,3479.665039,3601.377930,4072.619141,4030.278076,4330.502930,3685.776611,1395.514893,198.176193,nan,nan,31.897299,nan,nan,nan,nan,nan,nan,nan,nan,18.430355,58.695980,241.284622,377.808838,1164.309448,2812.520996,3564.069824,2870.279541,2586.300537,2527.888184,2021.415894,2341.608887,2406.602783,2709.348633,2600.857666,2341.241211,1650.310059,1646.023682,1010.438049,nan,nan,nan,nan,nan,nan,nan,nan,nan,nan,nan,nan,nan,nan,nan,nan,nan,nan,nan,nan,nan,nan,nan,nan,nan,nan,nan,nan,nan,nan,nan,nan,nan,nan,nan,nan,nan,nan,nan,nan,nan,nan,nan,nan,nan,nan,nan,nan,nan,nan,nan,nan,nan,nan,nan,nan,nan,nan,7.548438,14.614143,30.409298,67.141197,83.512535,49.916679,46.502281,82.545929,103.054794,77.488358,27.507839,24.699274,166.765320,816.369751,1207.915039,1308.896362,5243.004395,6213.525391,5339.933594,5780.732422,5871.272949,5996.454102,6055.987793,6037.535156,6058.529785,5844.326660,5675.797852,5280.680176,4520.232422,3920.032471,4377.624023,5547.416016,5992.585449,5987.928223,5872.595215,5655.701660,5525.538574,4824.916016,3963.060547,3908.495605,3980.994385,4045.812744,3375.934082,3191.821533
4662.120605,4529.855957,4331.349121,4669.955078,5447.784668,5581.568359,5757.915527,5973.120605,6011.974609,5905.523926,5793.807129,5805.333984,5878.718750,5877.223633,5803.043945,5738.252930,5639.910645,5671.017578,5688.395996,5705.247070,5576.573730,5454.105469,5400.840820,5385.255859,5290.716797,5415.206543,5423.293945,5360.062988,5293.215820,5181.843262,5163.940430,5161.293945,5186.029297,5096.599609,5026.054199,4886.560547,4760.012207,4757.840820,4627.902832,4160.260254,3486.335693,986.337158,31.087847,nan,nan,nan,nan,nan,nan,nan,nan,nan,nan,nan,nan,nan,nan,nan,nan,nan,nan,nan,nan,nan,nan,nan,nan,nan,nan,nan,nan,nan,nan,3.805927,343.696411,3020.629150,3997.527344,4375.096191,4674.431152,4932.558594,5029.621094,4911.008301,5048.585449,4986.688965,4806.378906,4876.392578,4914.399902,5178.545410,5371.470215,5428.239258,5137.648438,4385.006836,5145.994141,4951.250000,4856.418945,4831.557617,4718.315430,4243.060059,4046.063721,3917.979492,3529.837158,3225.622314,2712.313477,2148.453613,2364.605957,2807.084229,3137.006348,3349.559082,3475.008789,3898.627197,4145.642578,4530.280762,4847.107422,5197.819336,5328.853027,4801.488770,3522.811279,3198.829834,4406.165527,4020.986572,4504.250977,3362.680908,1395.431763,318.035278,575.267212,807.765503,1054.406860,1958.558960,844.606201,141.540802,nan,nan,nan,nan,nan,47.470791,225.682724,636.012939,296.863678,2739.549805,3795.862061,3640.698486,3084.775146,3491.333008,1496.831299,837.974121,796.789734,1041.778198,2769.344238,2054.083496,2210.838867,909.833069,613.334778,506.973267,nan,nan,nan,nan,nan,nan,nan,nan,nan,nan,nan,nan,nan,nan,nan,nan,nan,nan,nan,nan,nan,nan,nan,nan,nan,nan,nan,nan,nan,nan,nan,nan,nan,nan,nan,nan,nan,nan,nan,nan,nan,nan,nan,nan,nan,nan,nan,nan,nan,nan,nan,nan,nan,nan,nan,nan,nan,nan,6.153263,22.678383,35.042332,66.318459,79.023712,40.078323,10.509748,32.274040,719.757935,858.353271,271.696228,525.720459,235.532455,8.809329,368.108002,142.499405,1419.312378,5930.073242,5593.249512,5714.011230,5756.094727,5848.412598,6003.938477,5984.979980,5820.307617,5812.868652,5508.504883,5204.149414,3952.418457,4410.521973,4527.176270,4920.843262,5532.175293,5687.642090,5615.319336,5455.441895,5281.917480,4034.514160,4070.785156,4977.239258,4788.535645,4422.647461,3896.687012,4444.272461
5338.741699,5257.276855,5314.990234,4919.697754,5289.305664,5232.186035,5360.937500,5563.654297,5706.021484,5650.020996,5528.690430,5588.858398,5769.287109,5626.072266,5633.984375,5633.374023,5538.460938,5653.547363,5602.426758,5630.996094,5496.729492,5389.082520,5334.296875,5256.281738,5285.309570,5340.352051,5388.012207,5323.753418,5417.730957,5373.596680,5259.723145,5101.473145,4982.118164,5041.269043,4916.437988,4890.191895,4769.747559,4652.093750,4362.234375,3954.107178,1669.354736,232.630402,nan,nan,nan,nan,nan,nan,nan,nan,nan,nan,nan,nan,nan,nan,nan,nan,nan,nan,nan,nan,nan,nan,nan,nan,nan,nan,nan,nan,nan,nan,nan,5.980298,60.077835,1986.332886,3220.480469,3990.123047,4300.223145,4733.618164,4953.330566,4960.857422,4999.562012,5023.434570,5054.145508,4924.024414,5023.348145,5237.610352,5348.134277,5387.732422,5426.016602,5450.924316,5386.708008,5307.708984,5273.748535,5165.197754,5038.804199,4806.000977,4389.622559,4126.977539,3732.231934,3616.049805,3248.903564,2580.731689,1805.911499,1936.188110,2221.389893,2318.768555,2546.386719,2175.677002,2497.166504,3977.597900,4202.921387,4386.010254,4910.673828,4872.516113,4491.096191,3218.470947,4001.994141,4819.108887,3672.991211,1004.879150,389.892487,52.349327,82.728378,325.779480,562.380005,1961.479248,2529.110840,2439.246338,2466.986084,2421.614502,2370.014404,2070.247070,471.007538,210.230103,342.532562,422.688110,325.283997,2501.532715,3028.960938,3407.226318,2737.666748,1108.155273,369.622620,269.970032,409.854340,174.344742,247.851837,464.518646,374.568542,nan,39.837784,28.610142,nan,nan,nan,nan,nan,nan,nan,nan,nan,nan,nan,nan,nan,nan,nan,nan,nan,nan,nan,nan,nan,nan,nan,nan,nan,nan,nan,nan,nan,nan,nan,nan,nan,nan,nan,nan,nan,nan,nan,nan,nan,nan,nan,nan,nan,nan,nan,nan,nan,nan,nan,nan,nan,nan,nan,nan,nan,nan,5.588211,13.201694,18.119787,48.956295,64.096329,21.846474,5.776276,305.789551,1356.720337,1924.923462,1031.653564,1690.211426,1498.828613,381.319031,383.250427,1.310806,352.385468,3325.585938,6017.602051,5437.823730,5611.465820,5748.629883,5918.276367,5869.988281,5834.801270,5799.149414,5755.104492,5568.050781,4660.426758,4734.991699,4723.189941,4160.764160,4751.220215,5029.301758,5123.530273,5129.117676,5144.660645,4484.933105,5577.175293,5389.333984,4621.929688,3734.664062,4580.213379,5239.969238
5513.204590,5433.494629,5567.432129,5718.486816,5655.311035,5440.933105,5277.794922,5288.187012,5450.918945,5557.153320,5448.277832,5301.727051,5419.588867,5477.858398,5440.440430,5396.163086,5358.087402,5554.453125,5475.073242,5334.018066,5503.249023,5299.121582,5210.301270,4975.756836,5009.829590,5296.980957,5359.309570,5329.867676,5242.703613,5197.909668,5037.921875,4926.266113,4813.465332,4751.654785,4611.753906,4605.348145,4531.214355,4440.455566,3992.364258,2936.718750,201.729141,5.307768,nan,nan,nan,nan,nan,nan,nan,nan,nan,nan,nan,nan,nan,nan,nan,nan,nan,nan,nan,nan,nan,nan,nan,nan,nan,nan,nan,nan,nan,nan,nan,5.872660,10.165380,267.097839,2015.357788,2922.467773,3263.104736,3824.365723,4476.198730,4761.911133,4791.676270,4736.425293,4723.193359,5074.214355,5202.259277,5264.257812,5314.341309,5329.816406,5362.810547,5397.335938,5417.267090,5387.739258,5249.208496,4932.645508,5061.304688,4969.031250,4935.683594,4695.200684,4485.633301,4353.204590,4024.910889,3420.425049,2366.780273,1632.170532,1698.310059,1416.796997,1313.430054,2371.704834,3399.116455,3867.752197,4443.928223,4767.672852,5052.388184,5190.641113,5317.403809,5001.380371,4111.252930,4643.318848,3382.751465,487.529510,nan,nan,nan,nan,nan,76.633270,715.339966,1181.572998,2262.922119,2661.913086,2862.817139,2085.143066,1047.730103,1540.169922,1700.278320,2151.147705,1917.448730,699.807983,1794.563965,2285.954102,1013.586792,172.430222,331.907074,398.946777,235.178299,45.663170,nan,nan,nan,nan,nan,nan,nan,nan,nan,nan,nan,nan,nan,nan,nan,nan,nan,nan,nan,nan,nan,nan,nan,nan,nan,nan,nan,nan,nan,nan,nan,nan,nan,nan,nan,nan,nan,nan,nan,nan,nan,nan,nan,nan,nan,nan,nan,nan,nan,nan,nan,nan,nan,nan,nan,nan,nan,nan,nan,nan,nan,nan,nan,5.327569,15.933538,25.420412,39.012115,48.488281,35.925892,7.866004,23.011021,1075.596924,1705.378540,2410.873047,2374.297363,1691.740723,2508.674805,1858.266479,861.770813,193.955658,94.512444,1451.943115,5621.804688,5331.451172,5407.322754,5659.652832,5626.868164,5680.418457,5715.239746,5743.614746,5784.127441,5730.391602,5599.200195,5499.570312,5177.581543,4421.380859,4851.457520,5143.401367,5332.636230,5387.750488,5629.135254,4946.823730,5873.275391,5481.991699,4839.599121,4801.286621,5351.021484,5478.064453
5547.494629,5629.722656,5865.062500,5934.982422,5821.738770,5746.400879,5656.030762,5651.938965,5637.961914,5566.194336,5520.728516,5500.820312,5612.195312,5497.301758,5400.094238,5266.292969,5395.892090,5302.294922,5117.264648,5245.997559,5194.540527,5165.261719,5013.759277,4894.890137,4753.090820,4924.211426,4875.308594,4808.187500,4813.389160,4672.091797,4589.539551,4344.451172,4127.738281,4225.618164,4145.516113,4064.934326,3991.810303,3875.174072,3317.446777,1117.538330,nan,nan,nan,nan,nan,nan,nan,nan,nan,nan,nan,nan,nan,nan,nan,nan,nan,nan,nan,nan,nan,nan,nan,nan,nan,nan,nan,nan,nan,nan,nan,nan,nan,2.764421,5.554733,21.730639,124.961273,748.457825,849.126953,1509.675049,2751.955811,4125.042969,4713.128906,4883.094727,4988.972656,5085.078125,5160.147949,5216.987793,5216.389648,5192.740234,5234.560547,4964.908691,4808.557129,4456.449707,4234.634766,4364.072266,4704.488281,4849.079102,4951.475098,4746.918945,4684.290039,4537.726562,4399.468750,3916.994385,2899.660400,2031.891113,1930.833618,1959.639282,1979.105957,2931.868408,3544.398926,4001.032227,4227.920410,4650.655762,5055.669922,4945.309082,5030.909180,5134.472656,5065.531250,4953.621094,4046.290527,447.278992,nan,nan,nan,nan,nan,35.880829,421.094574,1353.860229,1299.041382,2421.833252,2832.618408,1556.022095,128.745560,2101.386963,3127.801270,2577.689697,1093.770020,273.709137,751.265747,566.891296,100.329391,nan,253.453247,418.917297,150.165939,136.979996,307.898682,43.322117,nan,nan,nan,nan,nan,nan,nan,nan,nan,nan,nan,nan,nan,nan,nan,nan,nan,nan,nan,nan,nan,nan,nan,nan,nan,nan,nan,nan,nan,nan,nan,nan,nan,nan,nan,nan,nan,nan,nan,nan,nan,nan,nan,nan,nan,nan,nan,nan,nan,nan,nan,nan,nan,nan,nan,nan,nan,nan,nan,nan,nan,nan,6.363649,20.339884,14.476154,11.583182,10.194348,9.127648,25.669994,836.558350,2268.865479,3000.868408,2918.239014,1840.756714,1746.727173,2586.276367,2447.893066,638.429626,61.526283,1153.205811,5026.846191,5416.788086,5214.293945,5434.658691,5440.794922,5416.073242,5605.223145,5621.664551,5565.208008,5592.868164,5558.604004,5545.126953,5512.775391,5308.476074,5035.053711,5364.067383,5483.059570,5673.656738,5442.261230,5487.019043,5599.653320,4641.674316,5058.092285,5580.082031,5612.367676,5512.279785
5851.423340,5918.297363,5926.465332,5976.925293,5886.448242,5803.581055,5747.244629,5788.431152,5753.916504,5524.838867,5424.797852,5488.748535,5573.895508,5432.030762,5279.049316,5158.074707,5389.960449,5377.197266,5189.958008,5142.263184,4996.454590,4962.418945,5078.593750,4917.821777,4743.229004,4696.363770,4614.073730,4540.559082,4376.830078,4201.421387,4156.599121,4024.672852,3909.747314,3700.188721,3533.209229,3195.192871,3184.258057,2830.360352,3018.573730,820.325684,nan,nan,nan,nan,nan,nan,nan,nan,nan,nan,nan,nan,nan,nan,nan,nan,nan,nan,nan,nan,nan,nan,nan,nan,nan,nan,nan,nan,nan,nan,nan,nan,nan,nan,nan,13.849304,22.859385,34.493309,79.894882,86.064056,207.150940,2183.702393,3308.649414,3825.682129,4443.653320,4769.064941,4932.541504,4967.278320,4815.658203,4939.917480,4891.824707,4223.663086,3584.119873,3455.828369,4205.169922,4716.380371,4897.770996,4924.252441,4878.560059,4799.894531,4556.268066,4296.357910,4362.823730,4010.892822,3478.858398,2691.281494,2272.929932,2145.210449,2590.370361,3153.166504,3625.917236,3829.706543,3783.648438,3770.209717,4813.337891,5262.388672,5136.662598,5232.546387,5337.842285,4253.095215,3251.850830,954.665344,nan,nan,nan,nan,nan,nan,75.128113,753.008728,1653.175293,2508.006592,2654.445557,2458.349854,279.640198,1147.361938,1041.592651,257.848358,41.771477,71.252777,787.997803,308.264893,nan,nan,nan,25.730740,27.315243,484.396057,595.104858,1398.560181,1524.939819,971.992004,90.111000,641.083984,1155.794922,1705.713501,1656.617920,851.156067,nan,nan,nan,nan,nan,nan,nan,nan,nan,nan,nan,nan,nan,nan,nan,nan,nan,nan,nan,nan,nan,nan,nan,nan,nan,nan,nan,nan,nan,nan,nan,nan,nan,nan,nan,nan,nan,nan,nan,nan,nan,nan,nan,nan,nan,nan,nan,nan,nan,nan,nan,nan,nan,nan,nan,nan,11.102500,nan,nan,nan,nan,nan,1390.519409,3123.490234,3293.803711,3473.062256,3452.472656,3515.742188,3260.678223,829.609070,344.765900,1108.196655,2779.074707,5617.392090,5647.100586,5290.399414,5252.627441,5253.430176,5363.922363,5479.830566,5559.887207,5573.786621,5554.269043,5623.070801,5678.895508,5543.304688,5021.145508,5056.797363,5489.207031,5528.145508,5295.409668,3952.370117,5323.278809,5094.514160,5606.935547,5745.811523,5706.516113,5642.232422
5834.926758,5607.235840,5871.372070,5984.012207,5789.558594,5499.665527,5746.997559,5697.570312,5723.059570,5716.967285,5600.857910,5556.951172,5610.596680,5502.331543,5390.810059,5449.761719,5339.845703,5356.083496,5231.914062,5166.546875,5130.879883,5121.004883,5015.887695,4896.403320,4648.543457,4498.903320,4417.468262,4337.060547,4273.752441,4158.897949,4092.857910,4033.406250,3898.086426,3674.331055,3576.666016,3374.684326,3216.417236,2894.733154,2848.513184,494.283905,nan,nan,nan,nan,nan,nan,nan,nan,nan,nan,nan,nan,nan,nan,nan,nan,nan,nan,nan,nan,nan,nan,nan,nan,nan,nan,nan,nan,nan,nan,nan,nan,nan,nan,nan,nan,nan,40.634480,162.146103,192.275864,191.121460,156.583298,632.039001,922.751465,1799.772949,3016.075928,3940.214600,4101.899414,4144.976562,4408.762207,3333.301514,1537.552124,1268.750000,2909.690674,4034.265625,4677.943848,4833.982422,4843.237305,4842.514648,4764.983398,4310.823242,3982.165039,3946.005127,3862.230713,3594.138428,3156.711182,2568.126465,2282.161621,2894.791260,3161.488037,3408.130127,3345.543457,3412.720947,4041.597900,4225.763672,4343.052246,4837.699219,5117.525879,5134.083008,3056.416016,2917.450195,477.989746,32.088177,34.048397,117.180267,130.552597,165.873108,nan,nan,nan,276.614990,1148.243530,2041.458374,2528.916992,1182.529053,173.824402,54.596764,20.656019,124.095482,128.535706,410.835480,97.869896,nan,nan,nan,nan,nan,22.421700,902.029846,1853.260010,2034.749390,2150.451172,2007.607056,2084.489014,2124.737061,2061.966309,1342.893433,562.957825,nan,nan,nan,nan,nan,nan,nan,nan,nan,nan,nan,nan,nan,nan,nan,nan,nan,nan,nan,nan,nan,nan,nan,nan,nan,nan,nan,nan,nan,nan,nan,nan,nan,nan,nan,nan,nan,nan,nan,nan,nan,nan,nan,nan,nan,nan,nan,nan,nan,nan,nan,nan,nan,nan,nan,nan,nan,nan,nan,nan,nan,nan,52.632229,445.143921,1282.025269,1627.048950,3086.195557,3605.262207,3487.294678,1409.821655,179.316956,93.998573,549.650696,1478.976074,3662.647705,6399.294922,5675.544922,5051.363281,5142.683594,5351.729004,5451.107422,5482.855957,5509.374512,5486.269531,5473.395508,5509.793945,5453.789062,5182.482422,4931.223145,5036.615723,5090.919922,4499.428223,5400.422852,5273.967773,5836.162598,5627.986816,5717.186523,5781.657715
5663.669922,5690.915527,5719.914551,5775.731934,5826.792969,5818.836426,5788.790527,5726.910645,5672.800293,5637.296387,5469.518555,5471.053223,5440.913574,5373.438965,5362.869629,5395.304688,5312.162109,5397.985352,5356.157227,5219.628906,5228.465332,5198.557617,5094.989746,5004.738281,4800.729004,4620.337891,4405.624512,4297.240723,4326.262695,4209.961914,4107.477051,3985.675781,3882.396240,3714.970703,3455.525879,2898.398926,2784.812012,2902.278320,2797.807617,322.488251,nan,nan,nan,nan,nan,nan,nan,nan,nan,nan,nan,nan,nan,nan,nan,nan,nan,nan,nan,nan,nan,nan,nan,nan,nan,nan,nan,nan,nan,nan,nan,nan,nan,nan,nan,nan,nan,nan,47.083481,109.983208,114.839058,47.991741,119.236214,140.879333,96.418045,122.220161,771.420715,1670.728516,2532.585938,1998.512207,553.231812,73.748863,64.106964,2345.020020,3879.699219,4078.098389,4667.436523,4783.244141,4573.066406,4118.701172,4059.396484,4167.378906,3916.662842,3581.485840,3623.679443,3241.634277,2822.675537,2477.413086,2568.830811,2936.872803,3056.188721,3305.256592,3570.579102,4162.909180,4632.983887,4267.287598,4295.559570,4686.662109,4400.499512,4675.162109,4758.402832,3390.454834,3010.048828,3289.397217,3064.451660,2907.241211,759.459717,12.746759,nan,nan,nan,nan,nan,929.638306,929.517273,32.525993,7.591105,45.065460,62.240051,47.018734,nan,nan,nan,nan,nan,nan,nan,nan,33.917904,187.046951,982.046570,1181.563721,1605.496338,1363.528809,1538.338013,1207.259277,184.874069,nan,nan,nan,nan,nan,nan,nan,nan,nan,nan,nan,nan,nan,nan,nan,nan,nan,nan,nan,nan,nan,nan,nan,nan,nan,nan,nan,nan,nan,nan,nan,nan,nan,nan,nan,nan,nan,nan,nan,nan,nan,nan,nan,nan,nan,nan,nan,nan,nan,nan,nan,nan,nan,nan,nan,nan,nan,nan,nan,nan,nan,nan,nan,nan,nan,nan,nan,462.650024,1908.785156,2502.660400,920.882141,163.121521,69.418579,461.037079,1223.529541,358.987793,1622.532959,5410.769043,6888.390137,5946.528809,5230.720215,5235.340820,5298.357910,5487.264160,5468.552734,5615.698730,5753.004883,5790.401855,5761.277344,5512.849609,5573.086426,5087.199707,5090.584473,5726.961426,5678.052734,5822.291992,5658.826660,5668.751465,5703.473633
5612.188965,5668.310059,5729.658203,5799.054688,5769.210938,5678.045410,5619.442383,5591.578125,5517.425293,5358.783203,5364.999512,5289.878418,5164.611328,5156.441406,5211.969727,5241.453613,5295.627441,5275.109863,5275.851074,5231.327637,5231.744629,5163.964355,5076.574707,4907.849121,4792.022949,4669.847656,4563.221191,4444.389648,4364.684570,4290.208984,4224.351562,4112.801758,3912.635498,3657.120117,3058.940430,2428.869141,2776.615967,2816.744873,2402.603027,444.294983,10.965720,nan,nan,nan,nan,nan,nan,nan,nan,nan,nan,nan,nan,nan,nan,nan,nan,nan,nan,nan,nan,nan,nan,nan,nan,nan,nan,nan,nan,nan,nan,nan,nan,nan,nan,3.953322,nan,nan,nan,nan,27.854586,49.655754,14.236960,23.080004,57.690712,103.703217,241.683914,287.702484,111.153564,110.761070,94.477882,77.667572,69.116661,529.939880,1976.664429,2930.429443,4237.826172,4617.872070,4585.496582,4433.293457,4453.162109,4433.421875,4242.048828,4087.791260,3816.066406,3438.148193,3166.810547,2712.934814,2470.361328,2917.979492,3122.116455,3559.450928,4031.184814,4459.999023,4405.113770,4342.429688,4297.680664,4526.900391,4574.019043,4624.756348,4487.139648,4814.951172,4831.730469,4759.261230,3959.939697,1269.608276,89.624878,9.011239,nan,nan,nan,nan,nan,nan,nan,nan,6.941013,21.028267,47.016853,nan,nan,nan,nan,nan,nan,nan,nan,nan,2.235831,21.771793,35.293343,23.555296,3.505084,10.249821,8.901481,2.273693,nan,nan,nan,nan,nan,nan,nan,nan,nan,nan,nan,nan,nan,nan,nan,nan,nan,nan,nan,nan,nan,nan,nan,nan,nan,nan,nan,nan,nan,nan,nan,nan,nan,nan,nan,nan,nan,nan,nan,nan,nan,nan,nan,nan,nan,nan,nan,nan,nan,nan,nan,nan,nan,nan,nan,nan,nan,nan,nan,nan,nan,nan,nan,nan,nan,nan,nan,nan,nan,223.491730,1394.180664,1074.394043,227.690781,81.139381,1188.495972,3073.202637,2944.101562,1902.865967,1125.805298,2435.843506,5707.777832,6393.068848,4964.504883,4877.022949,4887.698242,5314.479004,5675.815430,5696.993652,5797.271484,5903.963867,5817.162598,6020.586426,4428.803711,5631.093750,5737.868164,5953.733887,5633.920898,5689.581055,5568.224609,5699.524902
5573.528320,5601.800293,5657.807129,5627.421387,5635.092773,5537.466309,5525.484863,5502.114746,5438.477539,5360.508301,5263.299316,5148.962402,5070.642090,5034.777344,5098.614746,5141.710449,5154.701172,5192.608398,5173.239258,5182.696777,5065.462891,5033.632812,4977.404785,4855.295898,4742.387695,4607.219238,4489.629883,4398.625488,4288.289551,4193.901855,4147.414551,4079.771484,3875.408447,3451.370117,2903.124512,2700.560791,2675.119873,2630.297607,1953.193604,236.684006,72.125832,nan,nan,nan,nan,nan,nan,nan,nan,nan,nan,nan,nan,nan,nan,nan,nan,nan,nan,nan,nan,nan,nan,nan,nan,nan,nan,nan,nan,nan,nan,nan,nan,nan,nan,nan,nan,7.950244,22.451849,nan,nan,14.368168,42.569878,53.982376,65.346077,312.248322,317.942078,167.774734,121.179100,95.759583,113.402901,123.466942,95.767502,134.593628,655.867188,359.458466,684.185120,3345.911865,4348.253906,4577.079590,4585.316406,4486.500488,4338.866699,4284.881348,4013.170654,3771.157227,3396.352051,3145.512939,2586.463135,2955.960938,3411.246338,3857.051514,4333.765137,4447.700195,4489.974609,4482.170410,4668.400391,4775.598145,4605.922852,4638.012207,4532.670410,4115.157227,3464.296875,2401.809814,468.257477,87.644943,24.084423,nan,nan,nan,nan,nan,nan,nan,nan,nan,nan,nan,nan,nan,nan,nan,nan,nan,nan,nan,nan,nan,nan,6.018765,6.931211,nan,nan,5.389403,7.848230,3.302005,nan,nan,nan,nan,nan,nan,nan,nan,nan,nan,nan,nan,nan,nan,nan,nan,nan,nan,nan,nan,nan,nan,nan,nan,nan,nan,nan,nan,nan,nan,nan,nan,nan,nan,nan,nan,nan,nan,nan,nan,nan,nan,nan,nan,nan,nan,nan,nan,nan,nan,nan,nan,nan,nan,nan,nan,nan,nan,nan,nan,nan,nan,nan,nan,nan,nan,nan,nan,nan,nan,170.783188,784.401306,583.917236,48.612537,1349.721191,2703.446533,3268.322266,3326.298096,3281.839111,2790.235596,1914.571411,3685.079834,5994.790527,4892.802246,4981.949707,5185.487793,5413.561035,5668.708984,5819.232422,5854.875488,5932.432129,6145.344238,4009.155029,6077.470215,5695.875000,5591.828125,5504.928223,5573.022461,5583.813965,5562.060547
5366.333984,5270.979492,5376.927734,5487.070312,5378.609863,5259.921875,5328.944336,5372.576660,5399.311523,5302.447266,5165.936523,5086.015625,5077.621094,5030.811035,5019.411621,5034.434570,5115.369629,5042.364258,5002.820801,5025.451660,4879.948730,4791.265625,4738.636230,4634.227539,4502.161133,4333.126953,4282.553711,4232.443359,4090.838379,3994.825928,3968.462158,3886.066650,3594.290039,3095.633789,2959.754395,2687.379150,2515.551514,2166.944092,522.157410,120.446167,88.682678,nan,nan,nan,nan,nan,nan,nan,nan,nan,nan,nan,nan,nan,nan,nan,nan,nan,nan,nan,nan,nan,nan,nan,nan,nan,nan,nan,nan,nan,nan,nan,nan,nan,nan,nan,nan,nan,105.351524,192.316772,167.413330,42.701782,136.187241,209.081772,264.131500,255.999329,46.813126,nan,nan,42.197548,215.781967,222.336777,457.940460,1444.910767,1916.474609,1394.348633,1686.275757,3780.448975,4404.335938,4473.528809,4456.644531,4332.351562,4274.682129,4168.174805,4075.878418,3780.227539,3428.265869,2807.607422,2680.405029,3357.924805,3721.907471,4077.741455,4194.392578,4226.351562,4372.075684,4506.422852,4802.582520,4727.792480,4047.998779,2524.823730,1817.951050,698.375977,216.516510,131.492661,83.802933,58.940948,19.970385,nan,nan,nan,nan,nan,nan,nan,nan,nan,nan,nan,nan,nan,nan,nan,nan,nan,nan,nan,nan,nan,nan,nan,nan,nan,nan,nan,nan,nan,nan,nan,nan,nan,nan,nan,nan,nan,nan,nan,nan,nan,nan,nan,nan,nan,nan,nan,nan,nan,nan,nan,nan,nan,nan,nan,nan,nan,nan,nan,nan,nan,nan,nan,nan,nan,nan,nan,nan,nan,nan,nan,nan,nan,nan,nan,nan,nan,nan,nan,nan,nan,nan,nan,nan,nan,nan,nan,nan,nan,nan,nan,nan,nan,nan,nan,nan,nan,nan,nan,nan,100.709351,274.124664,45.235512,62.615829,703.432068,1411.661011,1675.427002,2046.509277,2639.536621,2731.525391,1190.456177,2327.154541,6222.792480,5693.370605,5529.603516,5533.793457,5701.534180,5754.494629,5766.896973,5836.699219,4722.783203,4812.319336,5724.234375,5190.260742,5136.127441,4920.075684,5252.714355,5402.250977,5384.116699
5607.743652,5601.722168,5601.974609,5555.746094,5289.458008,5331.101074,5207.781738,5283.116699,5208.883789,5173.412598,5029.217285,4919.808105,4976.020996,4976.488281,4966.816406,4908.986816,4949.408203,4837.514648,4878.369141,4921.024902,4889.590820,4751.719727,4626.364258,4435.689453,4259.727539,4144.870117,3889.222656,3824.669922,3891.971924,3894.011963,3794.261719,3603.673584,3402.977295,3115.331787,2868.799805,2291.642090,1813.994507,487.631256,105.879967,204.616730,96.234077,nan,nan,nan,nan,nan,nan,nan,nan,nan,nan,nan,nan,nan,nan,nan,nan,nan,nan,nan,nan,nan,nan,nan,nan,nan,nan,nan,nan,nan,nan,nan,nan,nan,nan,nan,nan,nan,nan,118.215561,223.951889,233.324585,156.095444,130.058167,176.427460,167.717606,156.387207,121.835175,183.614532,195.027039,321.876038,304.204865,978.621460,2240.656738,2723.098633,3183.980713,3943.400146,4255.394531,4388.851562,4359.229004,4180.433594,4069.521240,4019.268555,4039.438477,3869.384766,3531.065186,3128.418701,2947.307617,3198.584229,3633.949463,3864.420166,3965.927979,3907.212158,3949.168945,4253.934082,4722.488281,4708.945312,4126.786133,2780.441406,1522.058838,206.223618,130.684525,116.889275,92.833572,74.425598,66.301651,50.475632,42.017258,30.017895,11.007573,nan,nan,nan,nan,nan,nan,nan,nan,nan,nan,nan,nan,nan,nan,nan,nan,nan,nan,nan,nan,nan,nan,nan,nan,nan,nan,nan,nan,nan,nan,nan,nan,nan,nan,nan,nan,nan,nan,nan,nan,nan,nan,nan,nan,nan,nan,nan,nan,nan,nan,nan,nan,nan,nan,nan,nan,nan,nan,nan,nan,nan,nan,nan,nan,nan,nan,nan,nan,nan,nan,nan,nan,nan,nan,nan,nan,nan,nan,nan,nan,nan,nan,nan,nan,nan,nan,nan,nan,nan,nan,nan,nan,nan,nan,nan,nan,nan,29.705780,122.229546,18.817265,93.923752,493.724213,1017.175842,1116.115723,1095.826416,1223.443115,1390.103149,1313.387939,446.738525,1465.840210,4748.166992,6105.840820,5389.657715,5447.095703,5544.732422,5525.482422,5058.492188,3848.520752,4954.487793,4789.750000,4948.909180,4825.721680,4686.037109,5055.040527,5436.420898,5584.723145
2393.366699,2488.127930,2704.225342,3489.148682,4334.169922,4679.195312,5327.436035,5572.505371,5674.574219,5227.454102,4890.306641,4791.986328,4731.052734,4692.514648,4773.698730,4834.698730,4819.985352,4743.911621,4676.923340,4767.098145,4793.927246,4664.857422,4463.221680,4313.764648,4157.330078,3737.232666,3788.261475,3821.101318,3674.375488,3621.623047,3632.513672,3582.982666,3251.804932,2890.713135,2327.874023,1001.106628,137.022552,126.796959,199.526047,nan,nan,nan,nan,nan,nan,nan,nan,nan,nan,nan,nan,nan,nan,nan,nan,nan,nan,nan,nan,nan,nan,nan,nan,nan,nan,nan,nan,nan,nan,nan,12.767903,13.481305,nan,nan,nan,nan,nan,nan,nan,nan,nan,nan,nan,nan,nan,33.963776,101.419319,62.230160,109.390083,265.311096,355.934082,317.095551,1531.137695,3001.705078,3402.198242,3944.112061,4192.690918,4225.111816,4184.907715,3753.994385,3759.026367,3740.583740,3785.981201,3702.745117,3506.693359,3200.883057,2802.052002,3019.823242,3513.364258,3732.915527,3734.831055,3492.446533,3194.594482,3861.333984,4407.404785,4638.044434,4218.112305,1482.394653,1280.585815,1180.697876,146.093781,98.732674,86.478645,89.426819,48.728752,17.279016,8.669398,13.664857,21.984560,29.682077,16.709072,1.622755,nan,nan,nan,nan,nan,nan,nan,nan,nan,nan,nan,nan,nan,nan,nan,nan,nan,nan,nan,nan,nan,nan,nan,nan,nan,nan,nan,nan,nan,nan,nan,nan,nan,nan,nan,nan,nan,nan,nan,nan,nan,nan,nan,nan,nan,nan,nan,nan,nan,nan,nan,nan,nan,nan,nan,nan,nan,nan,nan,nan,nan,nan,nan,nan,nan,nan,nan,nan,nan,nan,nan,nan,nan,nan,nan,nan,nan,nan,nan,nan,nan,nan,nan,nan,nan,nan,nan,nan,nan,nan,nan,nan,nan,nan,nan,11.815047,46.984108,15.198509,196.802750,945.684265,1321.585815,1274.842041,1187.155273,1138.271362,906.989990,631.795837,548.507751,81.289230,781.611450,4191.269531,6036.869629,5469.285156,5423.201660,5081.490234,3963.639404,3293.527344,4182.633789,4570.855469,5340.286133,5146.696289,4085.993652,4121.598145,2681.895996,2019.905396
2125.878906,3536.673096,3381.569580,2823.988037,2003.202515,1234.340454,1083.426758,1218.889038,2346.625488,3563.265625,4914.611816,5252.596191,5390.799316,4954.286133,4768.327148,4710.988281,4586.010254,4485.825684,4535.992676,4522.302734,4286.583008,4209.099609,4075.027344,4182.592285,4124.805176,3898.334229,3825.566162,3750.353027,3649.446777,3539.280762,3481.228271,3271.457764,2856.428711,2169.597900,596.819031,179.606216,157.216919,nan,nan,nan,nan,nan,nan,nan,nan,nan,nan,nan,nan,nan,nan,nan,nan,nan,nan,nan,nan,nan,nan,nan,nan,nan,nan,nan,nan,nan,nan,nan,nan,26.154968,22.771652,33.075977,12.036214,nan,nan,nan,nan,nan,nan,nan,nan,nan,nan,nan,nan,nan,nan,nan,110.893036,299.693756,339.180084,1506.369141,3126.426025,3723.493652,3953.735596,4026.719238,3978.021240,3825.674561,3589.871582,3536.647705,3563.833252,3458.877686,3052.125732,3024.299561,3169.460693,3166.543945,3288.096436,3425.731445,3652.130615,3643.709229,3560.157471,3800.598389,3888.318604,3116.784424,3302.805908,3702.905029,3353.665771,1037.531250,366.811066,313.796722,101.784782,24.476156,25.461988,38.071609,56.337925,7.909316,nan,nan,12.510473,31.529757,28.737999,9.598643,1.518294,1.222595,nan,nan,nan,nan,1.963781,nan,nan,nan,nan,nan,nan,nan,nan,nan,nan,nan,nan,nan,nan,nan,nan,nan,nan,nan,nan,nan,nan,nan,nan,nan,nan,nan,nan,nan,nan,nan,nan,nan,nan,nan,nan,nan,nan,nan,nan,nan,nan,nan,nan,nan,nan,nan,nan,nan,nan,nan,nan,nan,nan,nan,nan,nan,nan,nan,nan,nan,nan,nan,nan,nan,nan,nan,nan,nan,nan,nan,nan,nan,nan,nan,nan,nan,nan,nan,nan,nan,nan,nan,nan,nan,nan,nan,nan,nan,5.849171,9.358138,281.397064,1452.296631,1466.917603,1218.307373,1094.355347,963.796021,676.562378,445.849731,116.776093,22.319855,240.694962,1429.605713,3726.686279,6117.711426,4537.079590,3671.348389,4253.178711,4927.403809,4746.422852,3718.981445,2684.879883,1739.238892,2532.447754,2907.607666,2977.853027,1764.286011
3135.884766,3780.643066,3734.047363,3690.541504,3620.616211,3370.252930,2468.635742,1994.908203,1365.215576,474.524414,270.951843,675.584290,1287.434570,1978.574585,2676.170166,3513.031250,4416.045410,4822.118164,4575.615234,4430.901855,4152.994141,3560.359863,3759.419434,4073.489258,4078.090576,3838.148926,3828.387695,3716.387939,3440.069824,3249.620605,2970.786133,2789.029785,2019.446533,293.032776,117.291512,96.902359,nan,nan,nan,nan,nan,nan,nan,nan,nan,nan,nan,nan,nan,nan,nan,nan,nan,nan,nan,nan,nan,nan,nan,nan,nan,nan,nan,nan,nan,nan,nan,nan,nan,19.954416,47.687092,27.738028,nan,nan,nan,nan,nan,nan,nan,nan,nan,nan,nan,nan,nan,nan,45.159698,87.340607,218.288391,219.741196,1190.468994,2864.037109,3540.692383,3801.699463,3648.004150,3532.528076,3607.862305,3469.844727,3483.778809,3204.504883,2946.711670,2731.594482,2136.813477,2141.166504,2637.794922,2836.270996,3072.888184,3101.946289,3315.315186,3345.943604,3202.707031,3556.488037,3398.059814,2281.675781,1804.505371,2131.364258,2570.350342,2580.410400,1796.599487,1361.438721,286.825378,67.039619,17.673374,27.940487,65.236710,19.276497,nan,41.002316,44.064640,32.213268,39.665928,38.657074,31.403114,20.802032,4.254418,15.615335,15.262071,17.902645,25.606525,34.141983,12.181888,39.553173,4.786109,nan,nan,nan,nan,nan,nan,nan,nan,nan,nan,nan,nan,nan,nan,nan,nan,nan,nan,nan,nan,nan,nan,nan,nan,nan,nan,nan,nan,nan,nan,nan,nan,nan,nan,nan,nan,nan,nan,nan,nan,nan,nan,nan,nan,nan,nan,nan,nan,nan,nan,nan,nan,nan,nan,nan,nan,nan,nan,nan,nan,nan,nan,nan,nan,nan,nan,nan,nan,nan,nan,nan,nan,nan,nan,nan,nan,nan,nan,nan,nan,nan,12.309140,18.123789,43.154438,61.390316,46.886692,54.971127,675.366699,1542.963257,1328.578857,1032.940430,797.993896,625.947876,537.893555,423.991180,71.963615,nan,nan,74.782448,1628.711914,3344.464844,4661.713379,4768.366699,4206.992188,3016.295410,3003.431641,3424.773193,3857.541016,3854.409424,3751.005615,3288.842285,3043.845459,1694.039673
3795.329346,3775.298340,3727.280029,3646.143066,3470.343506,3279.806396,2588.802734,1871.475708,576.305359,136.686661,104.685631,74.702820,51.830494,54.556248,88.336662,119.921967,327.578644,1140.700195,2671.654297,4381.769043,4628.288574,4409.839844,4238.640625,4116.472656,3986.829346,3796.431641,3579.725342,3439.957031,3297.507324,3037.968506,2769.703613,2102.174805,390.643738,134.073364,179.898987,nan,nan,nan,nan,nan,nan,nan,nan,nan,nan,nan,nan,nan,nan,nan,nan,nan,nan,nan,nan,nan,nan,nan,nan,nan,nan,nan,nan,nan,nan,15.349585,27.006922,58.616169,56.076698,55.981743,92.786285,87.511841,84.149269,57.956154,nan,nan,nan,nan,nan,nan,nan,nan,nan,nan,25.539322,152.654007,298.879730,834.562866,1736.101074,2310.802002,3024.446045,3328.517334,3607.777100,3699.272705,3422.997803,3359.219482,3355.342285,3392.300293,3297.312988,3121.112061,2994.213379,2581.141602,2087.814453,1925.699951,2361.720459,2595.815674,2904.627197,2927.636719,2973.787109,3259.972900,2866.261719,2405.161133,2111.745117,1797.444702,1409.309692,955.214783,1019.876587,1752.652588,2700.623779,2778.725586,2078.915771,342.897247,85.333443,69.104454,42.951302,8.718139,48.240799,72.404480,72.772507,57.782383,46.309834,44.204502,41.079166,19.174261,8.267330,14.400196,12.416577,32.751419,44.711956,57.711441,48.177322,89.103119,42.937202,1.600638,nan,nan,nan,nan,nan,nan,nan,nan,nan,nan,nan,nan,nan,nan,nan,nan,nan,nan,nan,nan,nan,nan,nan,nan,nan,nan,nan,nan,nan,nan,nan,nan,nan,nan,nan,nan,nan,nan,nan,nan,nan,nan,nan,nan,nan,nan,nan,nan,nan,nan,nan,nan,nan,nan,nan,nan,nan,nan,nan,nan,nan,nan,nan,nan,nan,nan,nan,nan,nan,nan,nan,nan,nan,nan,nan,nan,nan,nan,nan,nan,20.693495,47.086842,84.409477,130.264297,170.297958,277.651733,623.934204,433.825073,520.916809,460.994720,321.001923,319.997498,464.577484,508.893951,55.465389,nan,nan,nan,1.750000,1527.203491,3981.179443,3362.894775,2661.710693,3712.737793,3700.165039,3221.774658,3827.393799,3844.533447,3855.661865,3448.428467,3167.830566,3657.003662
3762.574463,3701.481445,3459.150146,3272.577881,1473.364868,420.708038,119.303986,80.586243,91.440659,80.919846,72.374405,67.550797,61.783890,61.050533,44.840816,46.655869,115.958252,167.452530,62.657215,250.811951,1625.573242,3292.022217,4303.670410,4148.570801,3783.002686,3805.361328,3600.704834,3539.143066,3402.971436,3050.856934,2216.137695,460.210205,236.641693,100.592735,nan,nan,nan,nan,nan,nan,nan,nan,nan,nan,nan,nan,nan,nan,nan,nan,nan,nan,nan,nan,nan,nan,nan,nan,nan,nan,nan,nan,16.541750,24.983511,44.458160,46.218468,64.966042,112.110565,146.927048,117.940514,111.531593,56.345615,47.390614,48.236694,nan,nan,nan,nan,nan,nan,nan,nan,nan,nan,88.080589,224.927856,1263.616089,2408.812988,2940.621582,3282.367188,3496.383057,3578.369141,3636.822021,3579.736328,3435.444092,3417.936523,3426.463379,3368.877930,3291.864258,3179.884766,3094.601807,2718.660889,2429.439453,1934.012207,1900.082764,2274.565918,2511.454590,2715.164551,2748.201660,2828.196289,2970.838135,2903.177002,2284.272705,1485.105103,1204.106079,1162.153687,892.457214,349.536835,1159.232910,2165.860840,2017.026123,675.077698,106.935318,74.272804,31.202724,7.776451,45.845284,75.634300,86.915810,82.745895,65.181740,63.365536,66.556084,65.550255,23.120192,11.260653,29.450317,11.973706,nan,16.334116,59.371452,85.998833,101.671272,17.232666,30.078516,28.116858,nan,nan,nan,nan,nan,nan,nan,nan,nan,nan,nan,nan,nan,nan,nan,nan,nan,nan,nan,nan,nan,nan,nan,nan,nan,nan,nan,nan,nan,nan,nan,nan,nan,nan,nan,nan,nan,nan,nan,nan,nan,nan,nan,nan,nan,nan,nan,nan,nan,nan,nan,nan,nan,nan,nan,nan,nan,nan,nan,nan,nan,nan,nan,nan,nan,nan,nan,nan,nan,nan,nan,nan,nan,nan,nan,nan,nan,nan,nan,nan,67.923096,109.577316,151.295532,172.247726,231.965240,222.098206,198.056259,186.325607,216.669907,340.615295,538.878601,591.280029,125.671829,27.925066,nan,nan,nan,54.723820,2227.073730,3464.281250,3719.103271,3776.577148,2800.549561,1743.088623,3492.031738,3753.962646,3785.237793,3816.076416,3817.363281,3794.813721
3584.012207,2463.240234,1837.117554,1185.141724,230.479568,101.231499,80.794144,65.540688,56.746990,48.456070,41.580151,35.562542,32.941223,31.194632,27.644928,18.621387,4.989547,124.957291,153.619217,114.778458,118.813553,232.440567,1225.407227,3564.554932,4146.050781,3711.297607,3504.723633,2977.645020,1882.899170,885.759644,373.324280,120.788643,154.065079,nan,nan,nan,nan,nan,nan,nan,nan,nan,nan,nan,nan,nan,nan,nan,nan,nan,nan,nan,nan,nan,nan,nan,nan,nan,nan,nan,74.255821,21.306795,55.004852,87.503746,96.122604,148.164200,150.063370,95.077408,164.613892,145.758499,123.916916,107.946251,71.855553,59.260170,nan,nan,nan,nan,35.187721,33.272198,43.377464,10.602708,88.477066,122.835358,184.152237,940.597839,2480.034180,2999.098633,3242.350830,3396.855469,3461.728516,3539.554443,3541.130127,3422.118652,3001.338135,2480.005127,2345.207764,2710.991699,3050.207031,3140.169922,3164.982666,2997.238525,2758.788086,2472.267334,1907.669312,1633.804321,1941.657227,2209.456055,2316.755615,2631.055908,2752.040771,2904.679688,2921.728760,2428.033691,1229.720093,933.406067,1144.701050,767.187317,990.171692,1765.424683,1917.106689,869.974670,260.123535,95.805565,71.074966,56.008827,79.639435,114.021919,130.132629,93.805679,131.392410,206.220367,262.523560,345.137024,334.740814,163.351868,25.645447,nan,nan,12.439975,78.513916,103.672073,118.787827,38.400787,21.429880,12.987898,nan,nan,nan,nan,nan,nan,nan,nan,nan,nan,nan,nan,nan,nan,nan,nan,nan,nan,nan,nan,nan,nan,nan,nan,nan,nan,nan,nan,nan,nan,nan,nan,nan,nan,nan,nan,nan,nan,nan,nan,nan,nan,nan,nan,nan,nan,nan,nan,nan,nan,nan,nan,nan,nan,nan,nan,nan,nan,nan,nan,nan,nan,nan,nan,nan,nan,nan,nan,nan,nan,nan,nan,nan,nan,nan,nan,nan,nan,nan,nan,nan,36.355991,84.845314,119.033913,138.191513,142.925201,131.500687,131.424255,142.080872,145.776321,165.792892,233.561890,242.313187,132.013245,63.602146,28.821476,nan,33.927563,1009.196716,3244.831299,3547.579590,3518.979492,2699.640625,1006.611389,3089.858154,3565.937256,3656.460449,3721.635742,3744.104004,3730.238770
2076.988281,233.670563,136.835983,119.431534,93.424423,72.128242,67.529480,48.854824,34.216187,24.086575,16.471657,13.979006,10.369767,nan,nan,nan,nan,nan,15.599757,56.108471,69.514702,149.239456,144.580536,291.281494,770.564087,1432.340210,996.649597,208.359726,120.813652,45.739815,nan,nan,nan,nan,nan,nan,nan,nan,nan,nan,nan,nan,nan,nan,nan,nan,nan,nan,nan,nan,nan,nan,nan,nan,nan,nan,nan,nan,nan,nan,33.657795,73.504616,104.057137,129.794128,139.495056,187.444351,189.440582,145.809311,149.245819,158.865479,113.209633,115.432678,40.872578,nan,nan,nan,nan,nan,39.186943,126.201561,166.001404,159.209244,96.566818,170.589905,404.068970,1859.388306,2703.394531,2984.134766,3181.375000,3285.931152,3379.193848,3369.948730,3260.586426,2871.522705,1910.795898,800.835022,731.502991,779.415039,1981.551392,2639.305176,2965.898193,3081.665039,2993.700195,2762.776611,2409.895508,1899.458252,1443.832031,1518.339966,1897.237671,2250.633301,2373.724854,2386.071777,2720.258789,2753.616699,2600.859863,2104.584473,1726.320679,1475.434326,1062.566406,1245.641724,1154.451660,1225.675903,908.820374,559.624817,333.494690,133.152527,89.035950,114.491180,126.956917,112.756226,222.114716,206.686996,257.228394,nan,nan,40.899994,nan,nan,nan,nan,11.754968,46.422226,54.836823,52.418068,49.157444,48.322105,44.623146,34.179825,21.297312,5.321292,nan,nan,nan,nan,nan,nan,nan,nan,nan,nan,nan,nan,nan,nan,nan,nan,nan,nan,nan,nan,nan,nan,nan,nan,nan,nan,nan,nan,nan,nan,nan,nan,nan,nan,nan,nan,nan,nan,nan,nan,nan,nan,nan,nan,nan,nan,nan,nan,nan,nan,nan,nan,nan,nan,nan,nan,nan,nan,nan,nan,nan,nan,nan,nan,nan,nan,nan,nan,nan,nan,nan,nan,nan,nan,nan,nan,nan,nan,nan,23.857382,49.912422,67.225899,76.246368,62.432098,52.491299,45.407429,26.790981,32.491371,67.451752,169.978607,132.994461,98.462624,64.281288,30.683681,27.305685,90.328270,550.839294,1727.976807,1499.771973,1065.706787,2793.363281,3088.230225,3447.895020,3555.338623,3408.383545,2993.080811
286.402039,145.451050,113.651833,92.549789,72.715050,60.408569,52.928989,40.664303,29.305798,17.428940,10.168961,nan,nan,nan,nan,nan,nan,nan,nan,19.387808,20.044561,28.518459,227.298904,209.080658,57.373730,nan,nan,nan,nan,nan,nan,nan,nan,nan,nan,nan,nan,nan,nan,nan,nan,nan,nan,nan,nan,nan,nan,nan,nan,nan,nan,nan,nan,nan,nan,nan,nan,nan,nan,nan,8.032063,50.873100,104.630920,126.646339,143.842331,180.901886,199.513321,187.076050,184.023743,178.968903,115.859215,119.919395,55.870167,nan,nan,nan,52.418785,129.519928,213.817093,295.552917,356.387573,400.996857,412.692108,566.515076,760.307678,2044.368652,2594.351074,2817.611572,2870.195557,2969.510010,3088.845947,2906.413574,1454.512939,230.119003,160.786484,174.556946,nan,246.769699,940.841736,2185.664551,2620.215576,2819.945557,2909.774902,2932.302246,2696.810547,2337.620850,1908.798828,1443.650635,1230.470825,1588.806030,1790.992432,1886.871704,2013.121826,2239.167725,2340.886963,2431.688477,2402.624023,1994.032837,1520.676880,1147.946899,895.449951,518.085815,518.943054,241.061783,662.645752,992.371094,660.047729,190.401398,164.506683,218.101257,331.058258,216.887772,nan,253.503769,nan,nan,nan,nan,nan,nan,40.736053,64.622505,74.930336,8.432445,nan,nan,nan,5.805819,8.932826,nan,nan,nan,nan,nan,nan,nan,nan,nan,nan,nan,nan,nan,nan,nan,nan,nan,nan,nan,nan,nan,nan,nan,nan,nan,nan,nan,nan,nan,nan,nan,nan,nan,nan,nan,nan,nan,nan,nan,nan,nan,nan,nan,nan,nan,nan,nan,nan,nan,nan,nan,nan,nan,nan,nan,nan,nan,nan,nan,nan,nan,nan,nan,nan,nan,nan,nan,nan,nan,nan,nan,nan,nan,nan,nan,nan,nan,nan,nan,nan,nan,nan,nan,nan,nan,nan,nan,nan,nan,41.260708,71.302986,79.052406,47.630939,60.073486,34.221649,35.423458,nan,nan,22.666851,14.481181,42.022827,275.340515,375.472046,957.847107,1727.963135,1736.341553,500.937683
103.040222,102.257278,93.634491,79.313789,67.697250,55.247501,44.148598,35.354183,30.669775,22.384424,8.065789,2.916111,2.729862,nan,nan,nan,nan,nan,nan,nan,nan,nan,nan,nan,nan,nan,nan,nan,nan,nan,nan,nan,nan,nan,nan,nan,nan,nan,nan,nan,nan,nan,nan,nan,nan,nan,nan,nan,nan,nan,nan,nan,nan,nan,nan,nan,nan,nan,nan,nan,nan,3.877613,31.972105,89.262909,149.366440,122.393227,112.698326,111.509270,85.362160,128.497635,191.093948,224.717178,224.557098,286.278076,190.302231,232.300140,250.604340,255.411926,195.286514,159.216492,214.658585,173.810913,194.947830,292.183716,546.547546,1300.806519,1870.057861,2373.328857,2385.858398,2257.045654,2251.139160,960.838806,166.651260,nan,nan,nan,nan,283.686615,304.913818,1269.437744,2079.996338,2285.166504,2654.249023,2816.036621,2864.244385,2563.113525,2164.199951,1779.624268,1399.577881,1023.056396,926.938599,1152.188843,1169.234741,1300.517700,1448.334839,1568.311157,1896.663086,1794.914551,1113.787109,789.744263,653.338745,491.509277,386.380371,563.367432,913.763794,1203.554199,1635.251099,1306.246826,888.754639,662.176758,521.738770,274.729584,126.082924,123.587769,nan,nan,nan,nan,nan,nan,54.137863,101.952461,70.235443,4.473276,nan,nan,nan,nan,nan,nan,nan,nan,nan,nan,nan,nan,nan,nan,nan,nan,nan,nan,nan,nan,nan,nan,nan,nan,nan,nan,nan,nan,nan,nan,nan,nan,nan,nan,nan,nan,nan,nan,nan,nan,nan,nan,nan,nan,nan,nan,nan,nan,nan,nan,nan,nan,nan,nan,nan,nan,nan,nan,nan,nan,nan,nan,nan,nan,nan,nan,nan,nan,nan,nan,nan,nan,nan,nan,nan,nan,nan,nan,nan,nan,nan,nan,nan,nan,nan,nan,nan,nan,nan,nan,nan,nan,nan,nan,nan,nan,nan,10.892928,nan,21.593613,12.211916,5.958811,nan,nan,nan,nan,nan,nan,26.103106,48.010616,60.332085,69.368355
60.173290,83.276535,82.108887,75.106171,62.170830,44.700527,34.296288,35.679100,33.564461,26.698488,17.676605,14.279440,14.166434,10.756990,nan,nan,nan,nan,nan,nan,nan,nan,nan,nan,nan,nan,nan,nan,nan,nan,nan,nan,nan,nan,nan,nan,nan,nan,nan,nan,nan,nan,nan,nan,nan,nan,nan,nan,nan,nan,nan,nan,nan,nan,nan,nan,nan,nan,nan,nan,nan,nan,nan,31.199331,67.509315,93.425835,47.660789,16.846481,53.859127,82.043175,181.426498,236.620941,176.684647,234.701324,177.042740,155.435974,109.526039,9.584558,nan,77.533974,27.362864,76.290665,204.423172,247.365372,302.026703,550.624817,951.929077,1104.233276,1069.602417,786.992981,366.317078,211.631653,nan,nan,nan,nan,nan,nan,215.140656,294.068665,475.520477,731.618652,1343.088257,2049.913330,2437.067871,2629.213867,2280.414551,1572.559326,1032.789795,404.947418,254.258316,139.741943,109.272896,99.769714,126.821465,124.919662,236.156128,443.902130,500.015167,386.357147,472.881439,859.422363,1549.014648,2517.836914,2946.072021,2948.245850,2759.722168,2460.236816,2268.536621,1906.759766,1613.187134,1146.870972,322.532501,240.904053,212.335266,189.070541,52.817841,nan,nan,nan,nan,28.912083,33.280434,53.812267,41.133053,11.149713,nan,nan,nan,nan,nan,nan,5.554460,13.110004,14.256336,3.893351,4.186538,nan,nan,nan,nan,nan,nan,nan,nan,nan,nan,nan,nan,nan,nan,nan,nan,nan,nan,nan,nan,nan,nan,nan,nan,nan,nan,nan,nan,nan,nan,nan,nan,nan,nan,nan,nan,nan,nan,nan,nan,nan,nan,nan,nan,nan,nan,nan,nan,nan,nan,nan,nan,nan,nan,nan,nan,nan,nan,nan,nan,nan,nan,nan,nan,nan,nan,nan,nan,nan,nan,nan,nan,nan,nan,nan,nan,nan,nan,nan,nan,nan,nan,nan,nan,nan,nan,nan,nan,nan,nan,nan,nan,nan,nan,nan,nan,nan,6.081700,28.314600
46.088566,44.316608,36.574352,37.377361,nan,35.228619,38.271740,46.863434,37.119213,11.444123,nan,nan,4.482899,3.829985,nan,nan,nan,nan,nan,nan,nan,nan,nan,nan,nan,nan,nan,nan,nan,nan,nan,nan,nan,nan,nan,nan,nan,nan,nan,nan,nan,nan,nan,nan,nan,nan,nan,nan,nan,nan,nan,nan,nan,nan,nan,nan,nan,nan,nan,nan,nan,nan,nan,nan,nan,30.435829,45.655182,74.271721,175.001221,215.278427,197.651947,101.186340,50.342445,24.176989,24.540276,23.412069,nan,nan,nan,17.479078,179.242203,463.963440,265.308075,175.882065,279.018402,446.502594,551.216125,668.812988,539.843628,125.374176,153.323090,nan,nan,nan,nan,nan,nan,nan,207.909271,201.278351,442.583984,294.161011,263.615509,436.565552,853.012817,1096.812256,1081.140259,1025.802246,556.347229,177.705795,100.147026,42.091297,36.748577,80.020973,41.577751,62.153423,nan,74.355873,146.063202,302.045441,814.256226,1132.604126,1741.953735,2770.136719,3214.352539,3299.008545,3203.371582,3045.020264,2890.418701,2555.864746,1430.219116,865.036438,398.945251,323.687866,311.013000,250.040405,114.537140,189.019028,nan,nan,nan,nan,nan,35.070103,50.401470,12.273183,3.234729,nan,nan,nan,nan,nan,32.696625,106.985428,115.241714,74.244095,33.887321,10.684137,nan,nan,nan,nan,nan,nan,nan,nan,nan,nan,nan,nan,nan,nan,nan,nan,nan,nan,nan,nan,nan,nan,nan,nan,nan,nan,nan,nan,nan,nan,nan,nan,nan,nan,nan,nan,nan,nan,nan,nan,nan,nan,nan,nan,nan,nan,nan,nan,nan,nan,nan,nan,nan,nan,nan,nan,nan,nan,nan,nan,nan,nan,nan,nan,nan,nan,nan,nan,nan,nan,nan,nan,nan,nan,nan,nan,nan,nan,nan,nan,nan,nan,nan,nan,nan,nan,nan,nan,nan,nan,nan,nan,nan,nan,nan,nan,nan,20.628302
15.418815,5.804351,nan,5.965716,21.626570,37.879574,40.428337,47.858513,36.550491,28.383705,23.317154,15.934115,8.904131,3.415946,nan,nan,nan,nan,nan,nan,nan,nan,nan,nan,nan,nan,nan,nan,nan,nan,nan,nan,nan,nan,nan,nan,nan,nan,nan,nan,nan,nan,nan,nan,nan,nan,nan,nan,nan,nan,nan,nan,nan,nan,nan,nan,nan,nan,nan,2.956380,4.596019,nan,nan,nan,nan,47.959778,60.096657,69.751755,58.198502,79.746735,87.409332,60.896492,38.942589,23.155121,27.707357,21.037657,20.680622,nan,nan,nan,103.780518,nan,185.513138,151.565491,367.355896,885.319336,821.118896,495.194122,131.321289,100.630386,nan,nan,nan,nan,nan,nan,nan,nan,nan,nan,nan,299.118225,145.932312,185.081192,261.248596,357.731171,363.149841,303.966797,393.616821,657.979675,519.776184,215.270859,195.667725,251.724960,329.910583,368.191223,310.836761,298.392151,723.724121,1304.208618,1470.532227,1482.991943,1830.901489,2919.048340,3393.593994,3511.854980,3480.491211,3430.281982,3147.366455,1740.431396,1373.810791,1228.775146,1001.086548,752.702026,360.067596,288.826111,218.080673,176.080246,175.868530,81.761887,nan,nan,nan,nan,nan,nan,nan,nan,nan,nan,nan,25.147392,124.334534,120.946159,38.710758,nan,41.048210,38.252190,13.721912,8.106933,9.633519,11.542027,nan,nan,nan,nan,nan,nan,nan,nan,nan,nan,nan,nan,nan,nan,nan,2.708090,2.453214,2.880477,3.525861,nan,nan,nan,nan,nan,nan,nan,nan,nan,nan,nan,nan,nan,nan,nan,nan,nan,nan,nan,nan,nan,nan,nan,nan,nan,nan,nan,nan,nan,nan,nan,nan,nan,nan,nan,nan,nan,nan,nan,nan,nan,nan,nan,nan,nan,nan,nan,nan,nan,nan,nan,nan,nan,nan,nan,nan,nan,nan,nan,nan,nan,nan,nan,nan,nan,nan,nan,nan,nan,nan,nan,nan,nan,nan,nan
12.079686,29.142544,36.459026,41.206856,46.834534,48.522198,51.148483,53.224411,51.829216,35.393257,27.836937,12.351652,nan,nan,nan,nan,nan,nan,nan,nan,nan,nan,nan,nan,nan,nan,nan,nan,nan,nan,nan,nan,nan,nan,nan,nan,nan,nan,nan,nan,nan,nan,nan,nan,nan,18.087055,54.726654,103.129814,147.203049,144.137177,93.544212,49.688728,19.700157,39.868748,57.228168,59.135494,34.298767,25.421907,9.893353,19.800900,47.935143,12.923621,nan,75.079170,41.679962,45.795147,118.616844,75.261055,nan,20.473202,53.287270,33.622509,29.900576,23.116625,28.741840,25.130306,65.230583,nan,nan,129.211517,247.234985,249.576904,713.470947,1294.330688,1630.769043,1147.114746,358.940704,285.460114,209.122269,225.419754,178.832108,98.932617,nan,nan,nan,nan,nan,nan,nan,nan,nan,nan,nan,nan,251.308716,357.467529,238.444733,217.775436,255.370193,362.757935,955.636902,1149.905151,1021.411926,1000.488892,974.192688,1122.039185,1202.928467,1294.828003,1709.391846,1854.151855,1909.725708,1656.332520,1811.530273,2815.181885,3519.202393,3633.293457,3566.400146,3132.899414,2882.603271,2426.009033,2031.907959,1997.882812,2051.744385,2328.181396,2170.046143,1168.548096,493.777435,169.103622,163.141602,152.497452,115.518684,nan,nan,nan,nan,nan,nan,nan,nan,nan,nan,nan,nan,nan,62.697777,96.367401,80.477654,58.136627,39.840824,33.359116,36.814003,45.464252,30.823450,30.282869,20.873222,8.015563,1.686025,2.349432,5.097414,7.841061,4.685680,3.469742,nan,nan,nan,8.023763,9.822263,2.656697,nan,4.426199,7.158128,4.662557,3.546513,2.711914,nan,nan,nan,nan,nan,nan,nan,nan,nan,nan,nan,nan,nan,nan,nan,nan,nan,nan,nan,nan,nan,nan,nan,nan,nan,nan,nan,nan,nan,nan,nan,nan,nan,nan,nan,nan,nan,nan,nan,nan,nan,nan,nan,nan,nan,nan,nan,nan,nan,nan,nan,nan,nan,nan,nan,nan,nan,nan,nan,nan,nan,nan,nan,nan,6.893561,5.153667,nan,nan,nan,nan,nan,nan
41.835567,46.786106,51.962643,52.344330,50.595905,48.744888,46.333481,45.900482,47.670124,41.986847,31.709249,21.931356,12.772147,nan,nan,nan,nan,nan,nan,nan,nan,nan,nan,nan,nan,nan,30.617577,40.383987,85.852409,161.585556,32.860661,20.407452,18.771879,16.717037,14.484445,5.550504,7.156592,82.667297,111.502228,50.306793,223.327423,328.890198,326.577820,337.757568,219.503723,111.406654,81.613167,10.790807,nan,nan,27.542217,41.542732,52.734802,21.696089,5.330795,15.032266,41.020531,93.166222,66.177902,28.703806,36.371639,9.683145,61.415298,91.460785,82.697708,100.791420,209.834534,130.603134,66.825447,49.348873,45.592129,34.355412,37.110634,30.194523,12.433080,nan,nan,nan,nan,165.414688,139.985168,582.411987,1683.788086,1955.775635,1625.889282,1046.776367,366.929840,219.152817,141.921829,167.209808,363.524139,308.547516,nan,nan,nan,nan,nan,nan,nan,nan,nan,nan,nan,nan,nan,nan,nan,nan,nan,172.401108,216.166214,350.665283,484.311096,552.041321,1102.305176,1364.821899,1078.916260,1334.166748,1620.089478,1829.948242,1875.690063,1680.197632,1428.217896,2690.182861,3158.117676,3163.185791,3121.594238,3011.900146,3178.318359,3224.010986,3233.477051,3234.056396,3176.449219,3084.617676,2957.147461,2931.690918,2831.951904,2442.988281,1669.341919,1015.441040,178.389160,68.880630,127.591972,125.766251,nan,nan,nan,nan,nan,181.413696,185.962036,162.602600,193.497620,176.676346,159.646469,158.992661,151.293381,121.640274,85.178764,82.317688,75.568977,66.399330,45.040493,50.675022,61.011295,53.112034,59.540733,53.832020,38.578831,29.253328,32.234829,138.369568,132.667938,86.111237,29.938419,16.156240,10.004737,nan,nan,7.610528,10.600498,7.142005,3.890445,nan,nan,nan,nan,nan,nan,nan,nan,nan,nan,nan,nan,nan,nan,nan,nan,nan,nan,nan,nan,nan,nan,nan,nan,nan,nan,nan,nan,nan,nan,nan,nan,nan,nan,nan,nan,nan,nan,nan,nan,nan,nan,nan,nan,nan,nan,nan,nan,nan,nan,nan,nan,nan,nan,nan,nan,nan,nan,2.352016,6.443832,11.517477,17.295258,19.103329,20.618652,20.704451,13.461925,21.842710,25.774347,23.724483,29.367626,31.902008,38.578663,40.192280
